 -4.2922985840e+02 -8.2050665283e+02 -4.4669018555e+02 -6.1206365967e+02  3.4146923828e+02
 -3.3984017944e+02  1.5666384888e+02 -4.7127089844e+03  1.5031268750e+05  6.9280296875e+04
 -5.6777945312e+04 -8.6925281250e+04 -1.8813007812e+03  2.8336320312e+04 -5.4261871338e+02
  7.8431962891e+03 -1.0739018555e+04 -5.9182387695e+03  9.1908398438e+03 -5.7944321289e+03
 -1.7340499878e+02  5.9855307617e+03  2.8333964844e+03 -4.7931777344e+03  1.0351458984e+04
 -4.4833256836e+03  2.5017382812e+03 -1.3120957031e+03 -4.6795886230e+02  5.8822036133e+03
 -2.3018273926e+03 -2.3112275391e+03  9.2316054688e+03  2.1076210938e+03 -4.4867465820e+03
  2.9546647949e+03 -6.0305766602e+03  4.3910859375e+03  6.1719008789e+03  4.9851855469e+03
 -7.1994916992e+03  9.3860424805e+02 -6.9059982896e-02  1.9393378496e-01 -1.9435141981e-01
  5.4446723312e-02 -9.9441803992e-02  2.6170474291e-01 -2.5306999683e-01  1.5518839657e-01
 -4.0686856955e-02 -2.5152608752e-02  6.7631088197e-02 -1.4782825485e-02  2.3891877383e-02
 -5.6785851717e-02  3.7694890052e-02  1.4781801030e-02 -1.0963426530e-01 -1.9912183285e-02
  4.1509617120e-02  8.8018260896e-02  1.5505786240e-01  1.6391871870e-01  1.8134987354e-01
  1.4212241769e-01  1.0174454749e-01  1.2630137801e-01  4.3301573396e-01  1.5754237771e-01
  1.3202822767e-02 -7.9907611012e-02 -6.0230124742e-02 -8.8556796312e-02 -7.2893939912e-02
 -4.3063322082e-03  1.9313351950e-03  1.3505617157e-02 -9.2717949301e-03 -5.1867686212e-02
 -1.1298774928e-01 -5.3370203823e-02 -1.0455506854e-02  4.1656471789e-02  6.9896079600e-02
  1.7166207731e-01  4.9755638838e-01  3.3944091201e-01  2.6862519979e-01  1.6990615427e-01
  7.7921532094e-02  1.1933094263e-01 -2.7417185903e-01 -1.3338018954e-01 -1.9472958148e-01
  6.6379524767e-02 -1.6248856485e-01 -3.5627561808e-01 -6.4810270071e-01 -1.4717124868e-03
  6.4420504496e-03 -1.2658374384e-02  8.2264989614e-03  1.2479948811e-02 -2.3053444922e-02
  9.5634030004e-05 -1.4908118465e-04 -8.0643032561e-05  2.8273864882e-04  4.3866745546e-04
 -1.4862857643e-04 -9.9566423160e-05  2.9474424082e-04 -9.4407019787e-05  3.2319617458e-04
  2.9369076947e-04 -6.5613348852e-05 -2.5750091299e-04 -2.8318323893e-04  1.4170295326e-03
 -9.6148904413e-04  1.3154632179e-03  2.8108768165e-03  8.9498134330e-03  2.6052545756e-02
 -1.2756262731e-04  2.8444397449e-01 -1.9211987257e+00 -1.3085390674e-04 -1.0150778107e-02
 -1.1734791100e-02 -1.1027983390e-02 -5.6920070201e-03 -7.0703763049e-04 -4.2815884808e-04
 -1.8010819331e-03 -4.5182448230e-04 -2.2511174902e-03 -1.6213129275e-03 -1.1673800182e-03
 -1.2510368833e-03  1.0590637976e-04 -7.8225479228e-04  2.3951872718e-03  1.5748210717e-03
  4.3920590542e-03  4.7471649013e-03 -2.4659633636e-03 -1.1650798842e-03 -2.9266865458e-03
 -3.9061170537e-03 -2.2832467221e-03  3.9073626976e-04  1.8550102832e-03 -7.9729809659e-04
  1.3273103395e-03  9.0832982096e-05  1.8308379222e-03  6.2920368509e-04 -1.2353717466e-04
 -9.4921007985e-04 -1.7135166563e-03  4.2944090092e-04 -4.0678619407e-03 -2.2293279171e+00
 -2.4074306488e+00 -2.4976778030e+00 -1.2110491753e+01 -1.3031976700e+01 -5.0508589745e+00
  1.0196376801e+01  6.6284241676e+00  1.4527067184e+01  9.9409265518e+00  1.7046041489e+01
  1.3796975136e+01  2.7900748253e+00  1.2641704559e+01  8.6262283325e+00  9.9266119003e+00
 -2.4668669701e+00  5.4345817566e+00  7.7545146942e+00  1.3822390556e+01  4.3554897308e+00
  8.6432437897e+00  6.3338651657e+00 -1.1268550158e+00 -3.3756368160e+00  7.6965479851e+00
  4.2797732353e+00  9.7782850266e-02  3.8366321564e+01  2.2294544220e+01  1.0332878113e+02
 -6.0483619690e+01 -1.0387059021e+02 -6.5839813232e+01 -1.6098959351e+02 -4.0512905884e+02
  1.1315263672e+03 -1.0751108398e+03 -5.4992641602e+03 -5.0345268555e+03  3.7380195312e+04
  3.5339261719e+04  3.8753632812e+04 -1.2063575000e+05 -4.7229890625e+04  8.1571650391e+03
  3.4077503906e+04  2.9325297852e+03  1.8409191406e+04 -1.9333531250e+04  1.7681058594e+04
  1.6189458984e+04  1.3097493164e+04 -2.2597319336e+03 -5.3568691406e+03 -2.9441245117e+03
 -7.7821333008e+03 -6.4543173828e+03  8.1843598633e+03  1.1016462891e+04 -1.0563538086e+04
 -8.9567314453e+03  4.2198554688e+03  1.6061349609e+04 -1.4481436523e+04  1.2441839844e+04
 -6.4262241211e+03  6.5234111328e+03 -7.8322539062e+03 -1.2295664062e+04 -1.2320606445e+04
 -9.8616796875e+03  3.1217177734e+04 -8.9769013672e+03  9.8271161318e-02 -1.3020268679e+00
 -7.3690569401e-01  4.6023048460e-02  9.9428117275e-01  2.8451454639e-01 -2.7300700545e-01
  3.2844513655e-01  1.0325153172e-01  3.3648011088e-01  1.5558621287e-01  3.5984188318e-01
  2.3104028404e-01  3.2087627053e-01  2.3555067182e-01  2.7604341507e-01  2.5260895491e-01
  1.9991029799e-01  3.0688038468e-01  1.5852469206e-01  7.7296823263e-02  1.0770708323e-01
  1.0212472826e-01  5.8165021241e-02  1.0059522837e-01  1.3349489868e-01  2.8895534575e-02
  2.4779781699e-02  9.5292525366e-03  6.9713830948e-02  2.9343558475e-02  1.0792411119e-01
 -9.8920958117e-03  2.3049810901e-02  6.6302210093e-02 -6.7498579621e-02  1.0052196681e-02
 -4.9978494644e-02 -7.2384853847e-03 -4.7993450426e-03 -1.2003650516e-01 -7.8628368676e-02
 -3.5954165459e-01 -4.3246302009e-01 -3.2473993301e-01 -2.7157470584e-01 -3.3784395456e-01
 -3.6792826653e-01 -7.3741412163e-01 -6.9230359793e-01 -3.8530781865e-01 -6.3074368238e-01
 -7.7137368917e-01 -7.3166304827e-01 -6.5743368864e-01 -6.3551479578e-01 -4.9459800720e+00
  1.6083600931e-03 -4.8429351300e-03 -3.0967493076e-03  4.9750134349e-03 -4.5648636296e-03
  7.3532490060e-03  2.7905052411e-04  9.0161898697e-05  2.0737515297e-04  1.0913606093e-04
  2.0326321828e-04  2.2092457220e-04 -4.6804030717e-05  2.0087169833e-04 -2.5431322865e-04
 -9.4485672889e-05  4.9465434859e-04 -4.6539175673e-04 -5.1221367903e-04 -8.9877651772e-04
  6.8803719478e-04  9.6343668702e-05 -2.6430271100e-03  7.5611358625e-05 -1.7493587802e-04
 -7.8157586977e-03 -1.3410761021e-02  6.4652073383e-01 -6.2274937630e+00 -3.1555740861e-04
  2.5586744305e-03  1.8636528403e-03 -1.8233673181e-03  2.6404549135e-04  8.2476355601e-04
  6.5590144368e-04 -2.5675343350e-03 -1.9049010007e-03 -4.2522121221e-03 -2.8809460346e-03
  6.5495673334e-04  1.1814658064e-03  5.2574044093e-03  1.4221736928e-03  7.8761270270e-03
 -1.5265861293e-03 -1.7328200629e-03 -6.0303406790e-03 -2.5458903983e-03  2.9582374264e-03
  2.7343060356e-04  1.2957367580e-03  2.2465048914e-06 -8.2971033407e-04 -2.5128754787e-03
  1.8882660661e-03  2.2385478951e-03 -3.1599581707e-03  3.2393897418e-03 -4.5558549464e-03
  6.3828462735e-03 -4.2552053928e-03 -3.6461015698e-03  5.7779396884e-03 -1.1600585422e-03
 -2.2927011549e-01  8.0189552307e+00 -1.7203472853e+00 -8.2592792511e+00 -3.8277833462e+00
 -8.0361968279e-01  1.2352452278e+00 -6.5546221733e+00 -1.3998648152e-02 -6.5600261688e+00
  2.3533663750e+00  1.6599860191e+00 -6.9407401085e+00 -5.0202569962e+00 -5.8321809769e+00
 -5.5107003450e-01  4.0861091614e+00  7.3345251083e+00 -5.6530947685e+00 -5.8181805611e+00
  3.4313852787e+00  7.0324392319e+00 -3.9242100716e+00  3.7095620632e+00 -1.1910343170e+01
 -1.3085915565e+01 -2.6209943295e+00  5.3415065765e+01 -1.1598685455e+02  5.0144645691e+01
 -2.0449539185e+01 -1.8912861633e+02 -1.2180906677e+02  4.5098144531e+02  8.6576879883e+02
  7.3776776123e+02 -1.5116949463e+03 -2.3479904785e+03  2.0124074707e+03  2.6769992676e+03
 -2.2847592188e+05 -2.9336953125e+04 -2.9226757812e+04 -4.1175356445e+03  1.6067207031e+04
  9.9139941406e+03 -1.1550047852e+04  5.4191030273e+03 -1.0354283203e+04  1.0520516602e+04
 -2.2808137207e+03 -4.4733520508e+02  6.6735805664e+03 -6.0115107422e+03  1.6496791992e+03
  1.1057412109e+04 -4.0449423218e+02  1.4349218750e+03 -6.4383074951e+02 -5.2653906250e+03
 -1.1764165039e+03 -9.1658947754e+02  2.2555568848e+03 -1.5374165039e+03 -5.0662636719e+03
 -5.0080878906e+03  8.0796235352e+03 -6.1965380859e+03  5.4844492188e+03  5.1722441406e+03
 -1.4314532227e+04 -7.5201059570e+03  5.1218217773e+03  3.9178376465e+03 -1.2887829542e-01
  2.4609930813e-01 -7.4549995363e-02  5.2212430164e-03 -5.4309228435e-03  1.2721981108e-01
 -1.3743652403e-01  9.4013594091e-02 -3.9531670511e-02 -1.9911570475e-02  9.3056380749e-02
 -3.2780606300e-02  4.2129114270e-02 -3.0157839879e-02  1.3134745881e-02 -2.5699073449e-02
 -1.1161237024e-02  5.2255657502e-03  5.5964671075e-02  8.4700230509e-03 -9.4026187435e-03
  3.4856121987e-02 -3.3142343163e-02  4.3608799577e-02  6.8671919405e-02  5.6095700711e-02
 -1.6301502287e-01 -3.5602390766e-01 -5.0059562922e-01 -4.2733585835e-01 -2.9074630141e-01
 -7.5690701604e-02 -9.6755046397e-03 -1.9614183903e-01 -1.7776733637e-01 -5.4423332214e-02
 -1.8893580884e-02  5.9735693038e-02  9.9167339504e-02  3.8997571915e-02  3.5299658775e-02
 -4.9272947013e-02  1.1313543469e-01  1.0398123413e-01  1.5019036829e-01  2.9850345850e-01
  2.7338409796e-02  1.8771882355e-01  1.5135182440e-01 -8.9677698910e-02  1.3498531282e-01
 -1.0403417796e-01  1.0452798009e-01 -4.2894897051e-03 -4.9458626658e-02 -7.5007833540e-02
  1.0938653946e+00 -1.7114232469e-04 -2.2012935951e-03  2.2961646318e-03 -6.2555779004e-04
 -5.8082380565e-04  5.8742705733e-03 -1.8515661941e-04  6.9603784141e-06  9.0556546638e-05
  3.0837985105e-04 -8.6786923930e-05  2.7098508326e-06  1.7265998395e-05 -1.0424760694e-04
 -7.7088916441e-06 -6.2683288888e-06 -1.4287719387e-04  2.2557958800e-05  6.3666299684e-04
  7.6895393431e-04 -3.2008782728e-04 -1.1930910405e-03 -1.4724216890e-03  3.6664772779e-03
  9.3090604059e-04 -5.4864459671e-03  2.4509398267e-02  6.1831510067e-01 -2.5181479454e+00
  9.0810377151e-03 -5.2544297650e-03 -5.9709371999e-03 -6.6592027433e-03 -7.1159079671e-03
 -1.0302412556e-03  5.3885984235e-03  4.2283590883e-03 -1.2087104842e-03 -1.4355841558e-03
 -1.2178563047e-03 -1.5160089824e-03  1.5400549455e-04  3.9233356802e-05  2.7895844541e-03
 -1.9103530794e-03 -1.9637548830e-03 -1.2436124962e-03  1.5800063557e-04 -7.9588853987e-04
  9.3494867906e-04  1.2885909528e-03  9.7645586357e-04  1.2383106514e-04 -2.5521747302e-03
 -2.2560809739e-03 -1.0902133072e-03  4.7050458379e-03  8.2483990118e-03 -7.9229315743e-03
 -3.7807640620e-03  6.9321389310e-03 -6.7024468444e-03  5.3592110053e-03 -1.3584652916e-03
 -2.3247455247e-03  1.5880821943e+00 -6.9813470840e+00 -2.9031069279e+00  2.4467628002e+00
 -2.5819578171e+00 -1.4643086195e+00 -6.0086884499e+00 -6.7770540714e-01 -4.3335938454e+00
 -5.8612413406e+00  3.6833081245e+00 -1.4206182957e+00  1.0322754860e+01  5.2894148827e+00
 -2.1773825586e-01 -8.3008092642e-01 -8.7141907215e-01  4.4380011559e+00 -3.5555276871e+00
 -1.6512337923e+00  1.0390653610e+00 -2.8523853421e-01  3.3542540073e+00  4.3133907318e+00
 -4.4282488823e+00  3.5573081970e+00  9.5924167633e+00 -7.5272705078e+01  2.1225025940e+02
 -4.8333278656e+01 -4.0926217651e+02 -1.9339405823e+02  3.9377468872e+02  4.4784143066e+02
  2.1300851440e+02 -5.4363330841e+01 -5.8502624512e+01  7.3286859131e+02  1.4548490906e+02
 -1.5852101326e+01 -2.5983482422e+04  2.3870201172e+04 -6.2534223633e+03  7.0159164062e+04
 -1.2869614258e+04 -1.1112244141e+04 -8.2521484375e+03 -1.0243420410e+03 -9.8444744873e+02
 -4.9301240234e+03 -2.4379360352e+03 -1.0598354492e+03 -5.9232504883e+03  2.6697534180e+03
 -3.3859609375e+03  3.6850317383e+03 -1.8364628906e+03 -5.5259851074e+02 -4.8198364258e+03
 -2.3593474121e+03  2.6563957520e+03  1.1369780273e+03  1.2290756836e+03 -3.5089559937e+02
  2.7133871460e+02  1.2744853516e+03 -5.8089736328e+03  5.2893359375e+03 -3.3978543091e+02
 -4.8425683594e+03  1.2707328125e+04 -9.6392333984e+03 -5.1458856201e+02 -5.4288251953e+03
 -1.8282553554e-01  1.7637595534e-01 -9.1676481068e-02 -1.1308053881e-01 -4.1479961947e-03
  1.2764225900e-01 -1.7786017060e-01  1.2754969299e-01 -4.4128047302e-03 -6.4434811473e-02
 -1.2750317343e-02 -1.0423202813e-01  1.8801510334e-02  7.1940980852e-02  3.4585341811e-02
 -2.7891838923e-02 -2.0077921450e-02  5.5322483182e-02  5.6296523660e-02  2.1309472620e-02
  2.4317920208e-02  1.9964110106e-02  8.9335758239e-03 -5.9461239725e-03 -1.5586793423e-02
 -5.6996382773e-02 -3.6283981055e-02 -9.5558278263e-02  1.2606073916e-01 -4.0576297790e-02
 -3.1644047704e-03  7.9491183162e-02  3.1146274880e-02 -4.7169987112e-02 -7.3985710740e-02
 -2.6380093768e-02  3.0107144266e-02  3.9767947048e-02  4.0709789842e-02  2.7206337079e-02
 -1.7334567383e-02  5.7755201851e-05 -5.8928083628e-02 -1.6521263868e-02 -2.0330239087e-02
 -3.5029776394e-02 -4.2431786656e-02 -1.3061366044e-03 -1.0064266622e-01 -6.9548428059e-02
 -1.0998874158e-01 -2.6588100195e-01 -1.3731051981e-01 -5.3180161864e-02  5.3715027869e-02
  5.7606998831e-02  6.1993885040e-01 -1.2686662376e-04  1.8308985454e-04 -9.6314802067e-04
  1.0100580985e-03 -7.0516043343e-04 -1.2296889909e-03 -3.9429607568e-05 -6.9075460488e-05
 -2.4355965434e-04  5.6850563851e-05 -6.2841339968e-05  3.3634275314e-04 -4.4550147322e-06
  4.1340896860e-04 -8.7468950369e-05 -2.9696192360e-04 -3.0344714105e-05  1.2122000044e-04
 -3.1235898496e-04  5.9287872864e-04 -2.8296705568e-04  1.5624618391e-03  2.0935058128e-03
 -1.9992219750e-03  3.2871575095e-03 -1.4337987639e-02  1.0666191578e-02 -6.4155656099e-01
 -2.0345416069e+00 -3.0436974484e-03  2.6684727054e-03  3.5257413401e-04  5.3020427004e-05
  1.8286078557e-05  6.7805306753e-04 -1.4933373313e-03 -5.5616896134e-04 -2.8101259886e-05
  8.3084148355e-04 -4.4386859372e-05 -5.9152813628e-04  2.3002361413e-03  4.1677601985e-04
 -7.5378309703e-04  2.1982689213e-04 -2.6131640188e-03  6.1318662483e-04 -5.1863613771e-04
  1.1891114991e-03 -3.9182615001e-04 -3.9525830653e-04 -2.3489519663e-04  5.4168468341e-04
 -2.5147933047e-04  6.4745795680e-04  2.3560698610e-03  1.1180015281e-03 -1.5480311122e-03
  6.3075982034e-03 -4.3203295209e-03 -1.1387556791e-02 -1.1185385287e-02  1.1497449595e-03
  9.2973671854e-03 -5.4642735049e-03  2.9299371243e+00 -1.9668296576e+00 -2.3347647190e+00
  2.5913989544e+00  1.6618908644e+00 -1.6958596706e+00  6.6282713413e-01  1.2001127005e+00
 -1.0890371799e+00  3.9367597103e+00 -3.5572478771e+00  4.2936940193e+00 -6.3630394936e+00
  4.9379544258e+00 -5.5893096924e+00  2.8982732296e+00  1.3547234237e-01  1.9954359531e+00
 -6.9116884470e-01  1.7578130588e-02 -2.6340324879e+00  1.9157665968e+00  2.6597788334e+00
 -6.5761971474e-01 -2.8689365387e+00  5.0293464661e+00 -3.1254640579e+01  3.1579788208e+01
 -4.3038043976e+00 -1.2000430107e+01 -8.3283889771e+01 -9.3848403931e+01  1.6012806702e+02
  5.9502142334e+02  4.9764840698e+02  1.7707640076e+02 -2.3371044922e+02 -6.0143499756e+02
 -1.6476934814e+03 -5.6286552734e+03  4.4444097656e+04 -4.1937226562e+04  3.0944328125e+04
  1.7483037109e+04 -5.2749199219e+03 -5.3968066406e+03 -5.7526738281e+03  8.3139257812e+03
  8.7344525146e+02  7.7694564819e+01  1.8369439697e+03 -4.3131613159e+02  7.1838928223e+02
 -5.5214306641e+02 -3.9315679932e+02 -8.9899761963e+02  1.0363414307e+03 -3.3054684448e+02
  1.2443958282e+02 -1.8741517334e+03  2.4192780762e+03  3.2844836426e+02 -2.9531243896e+02
  1.9920747375e+02 -9.8887103271e+02 -8.2139105225e+02  2.2538906250e+03 -5.8125405273e+03
  6.3531269531e+03 -7.1104018555e+03 -5.9011914062e+03 -3.8105609131e+02  4.4391914062e+03
 -2.1568520508e+03 -1.1155865155e-02  4.6976193786e-02 -4.8203963786e-02  4.1705235839e-02
 -8.3909876645e-02  1.3262143731e-01 -1.0392419994e-01  6.3285320997e-02 -2.6201535016e-02
 -1.3660793193e-02  1.6286423430e-02 -1.7652424052e-02  1.9962992519e-02 -5.7242792100e-03
  1.9131412730e-02  2.9804573860e-03 -8.8215461001e-03 -5.6613255292e-03  8.7250452489e-03
  5.7635721751e-03  7.2815059684e-03  1.0156831704e-02 -9.7146145999e-03 -1.7033183947e-02
 -3.4926589578e-02 -1.4207422500e-03 -7.4660114944e-02  6.8613342941e-02  3.6601796746e-02
  9.6333157271e-03  1.3468983583e-02  2.2529300302e-02 -1.8892776221e-02 -3.3077005297e-02
 -1.5135888942e-02  1.8319597002e-03  2.1516904235e-02  2.3438746110e-02  2.1977132186e-02
  1.6933709383e-02  1.1647446081e-02 -1.8321616575e-02  1.4940890251e-03 -2.9812868685e-02
 -4.8007700592e-02 -2.7380980551e-02 -5.2920803428e-02 -2.5890685618e-02  2.9560901225e-02
 -6.4704497345e-03 -3.1809249520e-01 -2.9684927315e-02 -2.2700959444e-01 -5.2098804154e-03
 -3.3808961511e-02 -3.4857520461e-01 -1.4835727215e+00  1.5769611346e-03 -3.4561895300e-03
  1.6955600586e-03 -1.1059600860e-02 -9.9010858685e-03 -1.3592863688e-03  9.3538925285e-05
  7.9156590800e-05  4.7310578566e-07 -3.6471296335e-04 -3.4787927871e-04 -3.1319865957e-04
  6.7586428486e-05  1.1518627434e-04  2.4364645651e-04  6.6246633651e-05 -4.3187465053e-04
 -3.7024496123e-04 -8.1077363575e-04 -5.4615508998e-04  9.5431081718e-04 -1.4733285643e-03
 -2.0441140514e-03  2.7799636591e-03 -5.0697755069e-03  1.3415728696e-02 -6.3045412302e-02
 -2.3393267393e-01  1.8783496618e+00  5.6820395403e-03  8.7270801887e-03  8.4253884852e-03
  2.5966148823e-03  3.7028500810e-03  3.8064257242e-03  4.3267137371e-03  3.1266962178e-03
 -4.2725229287e-04  1.4737191377e-03  1.7171025975e-03  2.5999005884e-03  1.9985984545e-03
 -1.9734026864e-03  2.0485059358e-03 -1.9741049036e-03  7.1587832645e-04 -6.8893395364e-03
 -2.3402001243e-03  1.8644600641e-03  1.1716396548e-03  3.0831971671e-03  2.3445349652e-03
  4.9743620912e-04 -1.1742499191e-03 -1.5651877038e-03  2.8695113724e-04  3.6226975499e-04
 -1.6261856072e-03 -1.3453864085e-04  3.6273873411e-04 -1.2274325127e-03  1.1138945410e-04
  1.8732947065e-03  7.4481358752e-04  2.0602662116e-03  6.5163483620e+00 -4.3969044685e+00
  5.5247545242e+00 -4.1473789215e+00  6.6681866646e+00 -1.6296206713e+00 -1.0506343842e+01
 -7.4395041466e+00 -1.1414413452e+00 -1.1426975250e+01 -1.3532669067e+01 -4.1625723839e+00
 -1.4881017685e+01 -1.8090002060e+01 -1.2422721863e+01 -7.9301013947e+00  7.4295836687e-01
  3.7561678886e+00 -8.6301660538e+00 -1.3119128227e+01 -5.0719037056e+00 -1.0077466965e+01
 -8.4196891785e+00  6.0310173035e-01  5.6232161522e+00 -7.8616356850e+00 -3.7783224583e+00
  6.5764188766e+00 -3.7652812958e+01 -2.3848247528e+01 -7.9521408081e+01  5.0464286804e+01
 -2.0669624329e+01  2.2052820206e+01  2.3036146545e+02  2.6103802490e+02 -4.5676229858e+02
  4.1985815430e+02  3.8853422852e+03  4.7788017578e+03  7.7200375000e+04 -8.2187773438e+04
  2.5226511230e+03  2.7574531250e+04  4.1551269531e+04 -1.8390466797e+04  1.2999753906e+04
 -1.5276945801e+03 -1.5591960938e+04  1.6874072266e+04 -8.9881269531e+03 -4.8443071289e+03
 -5.5314487305e+03  6.2141147461e+03  5.6191933594e+03  6.1599389648e+03  1.2308656250e+04
  4.2267836914e+03 -4.4393637695e+03 -3.0656679688e+03  1.9524912109e+03  7.4725332031e+03
 -9.3798330078e+03 -5.6460043945e+03  8.3839501953e+02  1.1312014160e+03  7.5481793213e+02
 -9.7674130859e+03  5.5983471680e+03 -1.6946269531e+03  2.4537062988e+03  1.1365304688e+04
 -1.9303300781e+03  2.1138445312e+04 -2.9877482448e-03 -3.7138751149e-01 -4.0525627136e-01
 -7.0936575532e-02 -4.5005643368e-01 -9.3660533428e-02 -3.6557114217e-03 -2.8480547667e-01
 -2.1647727489e-01 -3.7064138055e-01 -1.8825381994e-01 -2.5555479527e-01 -3.0993512273e-01
 -3.4758132696e-01 -2.7366441488e-01 -2.3777106404e-01 -3.6428171396e-01 -3.7946638465e-01
 -4.3164610863e-01 -2.5952729583e-01 -1.5033529699e-01 -1.8322247267e-01 -1.5969862044e-01
 -1.1748210341e-01 -1.2857005000e-01 -1.2051734328e-01 -3.3504210413e-02 -4.1463032365e-02
 -3.8424588740e-02 -1.0031627864e-01 -3.0727174133e-02 -8.4682613611e-02 -1.3751884922e-02
 -1.5606679022e-02 -4.3516203761e-02  4.1838813573e-02 -1.0433630086e-02  4.4932741672e-02
  2.7841899544e-02  1.5559026040e-02  1.2779109180e-01  1.2819717824e-01  3.8531953096e-01
  2.8881964087e-01  1.7438365519e-01  3.1692308187e-01  2.5956606865e-01  5.1052927971e-01
  5.8327865601e-01  8.2558339834e-01  8.2618606091e-01  8.9801001549e-01  8.9552909136e-01
  1.0696921349e+00  9.7010380030e-01  9.8335963488e-01  5.5214095116e+00  3.0010924092e-06
  9.9511016160e-03  2.9239212163e-03  1.2374985963e-02  6.1544585042e-03 -2.8368553147e-02
 -1.7898013175e-04 -5.8690482547e-05 -2.0487705478e-04  1.6385484196e-04 -5.9331243392e-05
  7.3509698268e-05 -1.3673753710e-04  1.8419632397e-04 -1.8898511189e-04 -3.2987553277e-04
  6.1416743847e-05  6.0327688516e-06 -6.7461747676e-04  7.9566310160e-04  1.3499571651e-04
  1.4773078728e-03  1.6696389066e-03 -8.6528132670e-04  5.6187305599e-03 -1.4304460958e-02
  2.7100639418e-02  2.7652013302e-01  7.1041984558e+00 -2.8954297304e-03 -4.4096801430e-03
 -4.1070706211e-03 -1.7355568707e-03 -2.5788182393e-03 -4.0097949095e-03 -4.6049635857e-03
 -5.3797983564e-03 -7.2678900324e-04  2.3567446042e-03 -7.7747844625e-04  5.3443538491e-04
 -4.6725035645e-04  2.3097810335e-03  5.8428663760e-04  2.2468026727e-03 -7.7036622679e-04
  1.3684793375e-03  2.0634995308e-03 -1.1296989396e-03  9.2153000878e-04  5.8211258147e-04
  1.2533992995e-03 -1.2034035753e-03 -6.2185368733e-04 -3.0543215689e-04 -1.5669751447e-03
  6.5011152765e-04  2.0287553780e-03 -1.4694393030e-04 -2.4257027544e-03 -2.7995929122e-03
  4.7264192253e-03 -3.2914607436e-04 -4.9914103001e-03  4.1334540583e-03  1.0299464226e+01
  7.3813313246e-01  3.2705492973e+00  8.5115652084e+00 -5.9373283386e+00  1.0819724202e-01
 -9.3433256149e+00 -1.1618371964e+01 -8.9723119736e+00 -1.0367077827e+01 -4.5945825577e+00
  4.1881232262e+00  1.3069502831e+01  2.6735336304e+01  1.7688306808e+01  1.4141949654e+01
  4.8973226547e+00  1.5199054718e+01 -8.9039459229e+00 -3.7296493053e+00  1.4809894562e+00
 -1.4253427982e+00 -9.9360656738e+00  3.2803704739e+00 -1.9866363525e+01  2.5624708176e+01
  3.1276853561e+01  3.0313419342e+01  4.8745796204e+01  5.6488410950e+01 -2.0598176575e+02
 -2.4500212097e+02 -1.9001548767e+01 -4.5313659668e+01 -3.5052307129e+01 -8.3867080688e+01
 -9.6988410950e+01 -3.6504785156e+02 -3.2619050293e+03 -1.0392571259e+02  2.4453451172e+04
  5.7762023438e+04  6.7753037109e+03  3.7703851562e+04 -3.3667507812e+04  1.0425715820e+04
 -3.0217702637e+03 -1.1864020508e+04  1.9551511230e+03 -5.5973940430e+03  1.7151482422e+04
  7.9239204102e+03 -1.4336050781e+04  9.0125390625e+02 -5.9544248047e+03 -5.2870483398e+03
 -3.5254841309e+03 -3.4343771973e+03  2.1688647461e+03 -2.5143484497e+02 -4.1424428711e+03
  5.2324067383e+03  1.0466287994e+02  1.9204370117e+02  2.0545266113e+03  2.6802653809e+03
  2.4751501465e+03  2.5811994629e+03 -1.2365415039e+04  1.7152787109e+04  1.3765133057e+03
 -4.4919042969e+03  8.5635664062e+03  1.0529096680e+04 -3.2638689876e-01  6.5347798169e-02
  3.3564236760e-01  1.0408335179e-01  5.0372993574e-03 -1.9823785126e-01 -8.4331579506e-02
 -8.2653738558e-02 -3.7855017185e-01 -4.4704878330e-01 -8.9290362597e-01 -6.0003513098e-01
  6.9898587465e-01  8.8826322556e-01  1.0075055808e-01 -6.9198012352e-02 -2.0832325518e-01
  8.0100521445e-02  7.6517827809e-02  1.6615800560e-02  7.6419352554e-03 -8.2304120064e-02
  3.7610750645e-02  8.7582312524e-02 -2.2921793163e-02 -5.2989511751e-03  3.0062705278e-02
  3.3405750990e-02 -4.6316538006e-02 -5.1182799041e-02  8.0061527115e-06  9.9937982857e-02
  1.9966397434e-02 -1.8991133198e-02 -3.7441823632e-02 -2.4301022291e-02  4.2607244104e-02
  2.4761863053e-02 -1.4025878161e-02  1.9277969841e-03 -8.8041715324e-02 -1.2067713542e-03
 -5.4308518767e-02  3.7387486082e-03 -4.6145763248e-02 -7.8947246075e-02 -9.9072210491e-02
 -2.4451766908e-01 -4.5990191400e-02  7.5891368091e-02 -2.0455790218e-03 -1.7658472061e-01
  5.3346832283e-03 -2.0682147145e-01 -1.4745915309e-02 -4.6892356128e-02 -1.6429260969e+00
 -1.9638067170e-04  1.9115770701e-03 -1.3472150080e-02  7.5477845967e-03 -1.2237883639e-03
  1.6313428059e-02 -1.1834960605e-04  2.2345215257e-04 -1.6492411669e-04  1.8597152666e-04
 -3.1385544571e-04  5.1779781643e-05 -1.5308689035e-04 -1.4968935284e-04 -4.2990312795e-04
 -9.1908477771e-05 -3.9052020293e-04  3.1714258512e-05  1.6849556414e-04  6.4875534736e-04
  7.7519594925e-05  1.2298417278e-03 -1.2242008233e-03 -3.8958876394e-03 -3.3420675900e-03
  1.4794188552e-02 -1.1306643486e-02 -3.7253092974e-02 -3.8906264305e-01  9.0192822972e-04
 -1.1131979991e-03 -7.1677478263e-04 -1.3467225654e-04 -8.1773713464e-04 -1.9605963025e-03
 -2.9911799356e-03 -3.8200216368e-03 -2.9047920834e-03 -2.4068136699e-03 -2.8081191704e-03
 -6.6800013883e-04 -1.2449285714e-04 -2.4092884269e-03 -1.3038401958e-03 -2.9771176632e-03
  7.6196783994e-06  2.0720930770e-03  2.3034140468e-03 -3.9451965131e-03 -1.9412485417e-03
 -1.5186067903e-03 -2.2432738915e-03  1.6714904923e-03  9.6392416162e-04  1.3222395210e-03
  1.6051013954e-03  9.3257584376e-04  1.3823241461e-03 -7.4439944001e-05  8.2508561900e-04
 -8.9904607739e-04 -8.3475286374e-04 -5.1083182916e-04  2.7361657703e-04 -1.2770598005e-05
 -5.7229118347e+00  9.5895805359e+00  8.1032218933e+00  8.8045301437e+00  1.6763626099e+01
  4.1141626239e-01 -4.8759536743e+00 -9.4223022461e-01  4.9601024389e-01 -7.6816496849e+00
 -1.2843006134e+01 -1.7240402222e+01 -3.1695251465e+01 -3.4811286926e+01 -4.0138027191e+01
 -4.5301677704e+01 -3.9534179688e+01 -2.4547340393e+01 -3.2173942566e+01 -1.1001323700e+01
 -2.9983943939e+01 -3.8053798676e+01 -2.3458915710e+01 -2.5993852615e+01 -2.5351400375e+01
 -3.1817066193e+01 -1.3994790077e+01 -1.5816482544e+01 -8.5944423676e+00 -4.9881191254e+01
 -6.0993804932e+01  1.8391645432e+01  4.3559867859e+01 -8.7937564850e+00  4.7469506836e+02
  4.2714291382e+02  5.2535424805e+02 -5.1481777344e+03  8.6000524461e-03  5.9240263672e+03
 -1.9575754688e+05  3.5549800781e+04  1.0513078125e+04  8.4053320312e+04  2.3866619141e+04
  1.6337175293e+03 -5.6066752930e+03  8.3261035156e+03  1.5047955078e+04  1.0867265625e+04
 -4.7832294464e+01  3.0526699219e+03 -2.7319375000e+03 -1.7371525879e+03 -7.8570878906e+03
  2.8841889648e+03 -6.7798330078e+03  5.6131225586e+02 -3.5529934082e+03  2.3728867188e+03
 -1.8479866028e+01 -5.5882924805e+03  9.8158502197e+02 -9.3170683594e+03  4.8449428711e+03
 -7.9357172852e+03 -2.9493035889e+02  4.1691215820e+03  1.9380802002e+03 -1.0518763672e+04
 -5.1880895996e+02 -1.0232070312e+04 -1.1524720459e+03  1.8497357422e+04 -1.8532203138e-01
 -4.8134554178e-02  1.4035068452e-01  1.7617818713e-01  5.2874457091e-02  1.1152731627e-01
  1.0525836051e-01 -5.8599926531e-02  1.1114391685e-01  1.0093706101e-01  7.1759477258e-02
 -1.7672884464e-01 -1.7493468523e-01 -3.3439803123e-01 -1.7812865973e-01 -1.8122187257e-01
 -3.0891824514e-02 -2.1686568856e-01 -2.1616560221e-01 -1.3807249069e-01 -8.2990437746e-02
  9.0896887705e-03 -5.5537905544e-02 -6.2183644623e-02  1.1285176501e-02 -5.5922638625e-02
 -3.2165996730e-02 -6.9785460830e-02 -3.1125165522e-02 -3.1512673944e-02 -5.9448007494e-02
 -1.1615174823e-02 -9.5867745578e-02 -5.1813513041e-02 -3.8236822933e-02 -7.7930122614e-02
  2.5199633092e-03  1.1118419468e-01  3.2624296844e-02  8.8996633887e-02  2.5640863180e-01
  3.4059196711e-01  2.8667640686e-01  1.7336542904e-01  2.6105183363e-01  4.2031115294e-01
  3.1762301922e-01  4.2187231779e-01  4.7081750631e-01  4.4194039702e-01  5.1615232229e-01
  3.1881454587e-01  3.0315279961e-01  4.9028155208e-01  3.3093658090e-01  3.6979666352e-01
  2.4602644444e+00 -2.1221164207e-04  1.8241938204e-02  1.6219060868e-02 -2.5243775919e-02
 -2.6850150898e-03 -3.1105048954e-02 -8.0398793216e-05  1.3806442439e-04  4.6921515604e-05
 -6.0361751821e-05 -1.5976629220e-04 -3.2221330912e-04  1.4591148647e-04  3.1320998096e-04
  2.7045072056e-04  4.2096732068e-04 -3.6316426122e-04 -1.7019864754e-04 -4.1611350025e-04
  5.5195280584e-04  1.1685962090e-03  1.3480746420e-03 -6.0574372765e-04 -4.1985840653e-04
 -7.6303561218e-03  1.3328844216e-03 -3.8343083113e-02  6.8415069580e-01  2.1973512173e+00
 -2.5682584965e-04  1.4769353438e-03  1.1926572770e-03  2.6258788421e-04  1.2249200372e-03
  1.4613433741e-03 -1.8376205117e-03 -5.1178003196e-04 -2.8403135948e-03 -2.4657943286e-03
 -2.7558899019e-03  1.6421173932e-03  1.2208855478e-03  1.9104004605e-04 -9.2598737683e-04
  1.0960490908e-03 -4.7468571574e-04 -1.2559635565e-02 -2.3403658997e-03 -4.8591541126e-03
 -1.2385233305e-02  6.4670422580e-04  2.0459115040e-03  1.4967935858e-03  2.7605097275e-03
  1.0236667003e-03  3.7137829349e-04 -9.7789932624e-05 -1.2184623629e-03  2.7456023963e-04
 -2.3465370759e-03 -6.0853920877e-04  1.2708728900e-03 -1.0173612973e-03  2.2514134180e-03
  3.2695464324e-03 -5.5924100876e+00 -7.5232453346e+00 -1.3832709789e+00 -8.7242021561e+00
  3.8628909588e+00 -2.3079493046e+00  1.9952387810e+00  1.6818426132e+01  6.6721763611e+00
 -4.1045093536e+00 -2.0461659431e+00  5.2703781128e+00 -8.6781234741e+00 -5.5162773132e+00
 -7.9928317070e+00 -2.6201531887e+00 -2.1284859180e+00  8.5148172379e+00  4.1869859695e+00
 -3.3299405575e+00  1.8141961098e+00  1.0574780703e+00 -1.1972474098e+01  9.3191947937e+00
  1.0370141268e+00 -1.1155258179e+01  1.1869706154e+01  9.2750873566e+00 -4.0321315765e+01
  3.5613819122e+01 -2.0499378204e+01 -1.8543484497e+02 -6.0840435028e+01 -2.0506793213e+02
  2.1530996704e+02  2.6977043457e+03  8.4878417969e+03  8.9969355469e+03  5.8085136719e+03
  3.2702675781e+03 -1.6596526562e+05  1.4673023438e+05  2.3558398438e+04  1.9523074219e+04
 -2.9405099609e+04 -2.3230880859e+04 -2.2884355469e+04 -4.3309183594e+04 -3.0570673828e+04
  2.4741916016e+04  4.7256105469e+04  2.0511218750e+04  1.4055915039e+04 -6.8252792969e+03
 -3.1683840332e+03  1.5840371094e+04 -2.4119539062e+04 -1.6184291992e+03 -4.6691093750e+03
 -7.4899487305e+03  2.5276472168e+03 -9.2830126953e+03  4.9894741211e+03  4.0348752441e+03
  2.4970002441e+03  4.9999707031e+03  8.5761791992e+02 -3.6724738770e+03 -1.6685169922e+04
  1.3638083496e+03 -5.5643183594e+03  2.1721914062e+04  2.1534195312e+04  2.2266757812e+04
 -1.1623322219e-01  5.5308043957e-02  1.8262112513e-02 -4.7707680613e-02  3.5099066794e-02
  1.0960276425e-01  3.3580884337e-02  3.2868705690e-02 -9.3823336065e-02  8.8432513177e-02
  2.8511958662e-03  9.4542717561e-03  2.0083811134e-02 -4.0037959814e-02  1.7982410267e-02
  1.9986189902e-02 -1.8068207428e-02  5.6726854295e-02  2.5153988972e-02  4.2070262134e-02
 -2.3652564734e-02  4.7852066346e-03  5.4180540144e-02 -2.5959763676e-02  9.4421897084e-03
 -5.8566775173e-02 -3.3894557506e-02  2.1168140694e-02 -2.4241393432e-02 -2.5570493191e-02
 -6.0058385134e-03 -9.2575261369e-03 -8.7016187608e-02 -6.6877269745e-01 -1.7284752131e+00
 -1.1034407616e+00 -3.6208894849e-01 -1.3732087612e-01 -1.6860801727e-02 -1.7453595996e-02
 -4.2578037828e-02 -1.8551399931e-02 -3.6036992073e-01 -3.7618908286e-01 -2.7006918192e-01
 -1.2733447552e-01 -2.5305527449e-01 -5.1779574156e-01 -4.9297636747e-01 -4.2705354095e-01
 -3.6785343289e-01 -4.2746669054e-01 -5.3475153446e-01 -4.4689086080e-01 -1.8802376091e-01
 -2.6113787293e-01 -2.1115853786e+00 -7.0094654802e-04  1.2679617852e-02  1.5688586980e-02
 -8.6684041889e-04  8.5805874551e-04 -2.6381203905e-02 -2.7690356364e-04 -1.9501063798e-04
  2.0684217452e-04  1.7684030172e-04 -3.7136397441e-04 -2.2955330496e-04  6.8058878242e-05
 -1.2296657951e-04  2.6401929790e-04  2.4272006704e-04 -1.8779828679e-04 -6.2399386661e-04
 -1.7835211474e-04 -1.0260230629e-03  9.7589690995e-05 -2.9438099591e-04 -2.9878439382e-03
 -3.7562672514e-03 -4.2344635585e-04 -2.7451919392e-02  3.1950440258e-02 -4.2706868052e-01
  5.2180685997e+00  2.4765443522e-03  1.1205140036e-03  6.7613902502e-04 -1.6869781539e-03
 -2.1467758343e-03 -2.2128350101e-03 -8.1007182598e-04  3.2528871670e-03  5.0095375627e-03
  1.1591622606e-02  8.4959147498e-03  2.0224310458e-02  4.7047954286e-04  3.1137166661e-04
 -3.0656166928e-05  4.3071964756e-03  2.1367284935e-03 -2.9701329768e-03 -4.8931958154e-03
  6.7531494424e-03  3.4794418607e-03  3.4856817219e-03  1.9412378315e-03  5.0428876420e-04
 -1.1513654608e-03 -1.6058625188e-03 -1.0790950619e-03 -3.0319936923e-04 -2.1190228872e-03
 -8.1848626724e-04 -5.9641730331e-05  1.1217523133e-03  1.0005279910e-03  2.0305523649e-03
  1.7313950229e-03 -1.2599584879e-03  4.0138626099e+00 -1.8928736448e+00 -2.6440274715e-01
 -1.5102476120e+01 -2.3541448116e+00  1.3694684505e+00  4.7510776520e+00 -2.2507832050e+00
 -5.1976556778e+00  2.1875138283e+00 -6.1147818565e+00  1.7631628036e+01  3.6786890030e+00
  8.3082145452e-01 -4.0186457634e+00  1.7363304138e+01 -1.0692806244e+01 -4.1955459595e+01
  1.9043327332e+01 -4.0990215302e+01 -1.3684592247e+01 -2.5070137978e+00 -1.6611391068e+01
 -6.4867877960e+00  2.2952117920e+00 -2.6299364567e+00  6.7034430504e+00  9.5122957230e+00
 -4.6950038910e+01  4.6036128998e+01  1.2460453063e-01 -6.6607368469e+01 -1.4875546694e+00
 -3.2951674461e+00 -2.9978720093e+02  1.1894753265e+02 -5.6622143555e+02  2.1628703613e+03
  3.9782650757e+02  5.8525305176e+02  3.2818296875e+05 -4.6744789062e+04  9.9121132812e+03
 -1.6440820312e+05  2.9845474609e+04  1.6309939453e+04  4.4779753906e+04 -2.1494958984e+04
  7.4547094727e+03 -8.9691816406e+03 -7.6505932617e+03 -7.4134042969e+03  1.9389237061e+03
  7.5895517578e+03 -1.0600312500e+03  1.1335130859e+04  8.6622978516e+03 -7.2331831055e+03
 -1.1846434326e+03 -2.1174702454e+02 -4.3479199219e+03  1.0922304688e+04  2.1176215820e+03
 -3.7680292969e+03  6.3668188477e+03 -1.5789846802e+02  1.1617695312e+04 -7.3710659180e+03
 -3.9286230469e+03 -1.3369488281e+04  2.4118015625e+04  3.2199572266e+04  1.7223921875e+04
  3.0688990234e+04  2.1147476137e-01  2.5500308722e-02 -1.5141981654e-02 -2.8953996301e-01
 -1.7669236287e-02  3.1759122014e-01 -1.2964107096e-01 -5.4856520146e-02  4.5970257372e-02
  8.5789419711e-02 -6.6399358213e-02  1.2977490202e-02  8.2757800817e-02 -3.9963085204e-02
  1.0164446384e-01 -1.3383625448e-01  1.2433843315e-01  4.1428148746e-01  1.5066320896e+00
 -1.1560182571e+00 -6.5667074919e-01 -4.7004109621e-01 -3.1832155585e-01 -2.6002433896e-01
 -2.2733195126e-01 -5.8996148407e-02 -1.5318320692e-01 -7.6721005142e-02 -8.4877967834e-02
 -7.3803320527e-02 -9.1150589287e-02 -7.7233001590e-02 -5.5650461465e-02 -4.6206180006e-02
  7.2927698493e-03  1.7957724631e-02  2.9053250328e-02  9.5415990800e-03  4.5286476612e-02
  1.9515100867e-02  1.5903312713e-02  1.3457916677e-01  3.4124657512e-01  3.1443545222e-01
  1.8245935440e-01  2.0737670362e-01  5.6848559529e-02  2.3812232912e-01  4.8381808400e-01
  5.3677302599e-01  3.2026141882e-01  5.6626164913e-01  6.3530063629e-01  6.6157972813e-01
  5.5000674725e-01  5.0112801790e-01  2.1435813904e+00 -1.3713672524e-03  7.1816220880e-03
  2.4559972808e-02  7.9421019182e-03 -2.3849061690e-03  3.0713216402e-03 -1.3095528993e-04
 -2.7505046455e-04 -3.1947193202e-04  8.7197455287e-05 -2.5477842428e-04 -2.0654739637e-04
  1.0473132716e-04  1.3843714260e-04 -2.8284257860e-04  1.4225357154e-04  4.1977613000e-04
  6.4179483161e-05  5.4063060088e-04 -2.1164180362e-04 -9.5832784427e-04 -1.4104656875e-03
  1.2519846205e-03 -3.6850536708e-03 -6.5944315866e-03 -7.5139412656e-03 -3.1745638698e-02
 -4.4565534592e-01 -2.4705305099e+00  7.1752798976e-04 -1.6670145560e-03 -3.2018253114e-04
 -1.5905979089e-03  7.9302629456e-04 -5.8003526647e-04 -2.2470632102e-03  6.0802913504e-04
 -8.7981368415e-04  4.1257953853e-04  4.8405053094e-03  1.2611368671e-02  1.0020756163e-02
  1.5457682312e-02  4.0268050507e-03  4.9133053981e-03  3.9064516313e-03 -3.5611139610e-03
 -7.7613275498e-03  1.5020087594e-03  5.6582028046e-03  5.7965391316e-03  4.6206144616e-03
  1.1588508496e-03  1.4373706654e-04 -2.1125033963e-03 -9.2093140120e-04 -1.4605865581e-03
 -1.1163403979e-03 -1.7333026044e-03  2.3351226992e-04 -1.4679122251e-04  2.2316365503e-03
  1.6132035526e-03  8.9122273494e-04 -1.9044071087e-04  6.9149804115e+00  2.3883244991e+00
 -3.0308165550e+00  8.9481467009e-01 -1.5482141972e+00 -8.6502075195e+00 -1.8300226927e+00
 -6.1944680214e+00 -5.0755512714e-01  3.5465300083e+00  8.9397344589e+00  5.6145148277e+00
  7.6837034225e+00 -1.8155497313e-01  6.2921252251e+00 -5.8534183502e+00 -2.8915953636e+00
  1.6444617510e+00 -6.7944040298e+00 -1.3462011337e+01 -1.9040203094e+01  4.5841712952e+01
 -1.2262641907e+02  4.2195755005e+01 -1.1924358368e+01 -2.2385354996e+01 -3.9044134617e+00
 -1.4059770584e+01  1.2365162849e+01 -1.8500450134e+01  8.5807790756e+00  1.7453529358e+01
 -1.4445866394e+02 -2.3570123291e+02 -1.1195655060e+02 -9.8667701721e+01 -3.2234152222e+02
 -2.4652816772e+02  5.7672955322e+02  4.2317036133e+03  8.5663632812e+04 -7.5898507812e+04
 -4.4437109375e+04 -7.9738304688e+04 -7.5168359375e+04  3.0867822266e+04 -6.1011840820e+03
 -2.7918560791e+02 -1.1481232422e+04 -3.8453355469e+04 -5.6898447266e+03 -2.0829376953e+04
 -7.0563437500e+03 -1.0332738281e+04  2.4968293457e+03  2.5984392090e+03  1.7057751953e+04
 -3.9804907227e+02  5.4378413086e+03 -3.3955107422e+03 -3.1655417480e+03  2.7069467773e+03
  3.7048330078e+03 -6.1785913086e+03  7.3828222656e+03  1.0069390625e+04  2.2718183594e+03
 -3.1037419434e+03 -7.0528955078e+03  1.7070324219e+04  1.1170502930e+04  1.6954593750e+04
  6.9405180664e+03  1.7938537109e+04  6.6038697958e-02  5.1482405514e-02  1.9012827426e-02
  3.0451439321e-02 -6.4097568393e-02 -1.6741248965e-01  1.5742936730e-01 -8.6426541209e-02
  9.5850013196e-02 -2.7648100629e-02 -2.0351786166e-02  1.7923932523e-02  8.3971597254e-02
  4.0769395418e-03 -4.9708921462e-02 -4.8044286668e-02 -1.6645189375e-02  5.3842432797e-02
  1.2178714387e-02  1.4862567186e-01  4.5212647319e-01  1.3339587450e+00 -1.1173965931e+00
 -6.4705866575e-01 -3.3978730440e-01 -9.4989903271e-02 -7.7366240323e-02 -1.1129245162e-01
 -7.3096983135e-02 -1.5560455620e-01 -4.8245780170e-02 -3.0273731798e-02 -6.1504531652e-02
 -4.5103546232e-02 -2.5122774765e-02  1.5103774145e-02  7.7113690786e-03  3.9468299598e-02
 -1.6474550590e-02  1.1873368639e-03  1.4142346336e-03  1.2563493848e-01  2.9821380973e-01
  2.5800845027e-01  2.9840600491e-01  2.3481118679e-01  3.5640579462e-01  2.7347701788e-01
  3.5596475005e-01  3.8449981809e-01  5.4256844521e-01  4.3458732963e-01  4.1304564476e-01
  4.4485417008e-01  3.6543479562e-01  3.5133624077e-01  3.8580698967e+00 -1.1177650886e-03
 -1.3892611489e-02 -4.3549546972e-03  7.5738206506e-03  4.2166560888e-03  2.8878172860e-02
 -1.5028841153e-04  3.9636509609e-04 -4.5328128181e-05  2.3340134067e-04 -8.6141531938e-05
  4.2918403051e-04  1.9086523389e-04 -9.9483477243e-06 -1.7424290127e-04  4.0108175017e-04
  1.1005509441e-04  2.1253229352e-04 -4.1634611989e-05 -3.6657339660e-04  1.9709990011e-04
  1.2285691919e-03  4.2988426867e-04  2.7199489996e-03 -1.6159985680e-03  6.3885264099e-03
  9.0777561069e-02  5.3064942360e-01  9.5815525055e+00 -6.2240930274e-03 -1.7062553670e-03
 -1.4019855298e-03 -1.3470464619e-03 -8.2188693341e-04 -2.4076399859e-03 -5.0564487465e-03
 -1.2867990881e-02 -1.5942201018e-02 -1.1150443926e-02 -4.0044593625e-03  1.6096582403e-03
  2.8856175486e-03  1.6477836762e-03 -5.3952117014e-05 -7.8377057798e-04 -7.9438998364e-04
  4.0238201618e-03  4.1487603448e-03 -3.5247653723e-03 -2.7202267665e-03 -3.5846512765e-03
 -4.4665350579e-03  1.3458110625e-03  1.2691091979e-03  2.6075411588e-03  7.5245153857e-04
 -2.3137927928e-04  1.0614349740e-03  2.4278515775e-04  3.2110692700e-04 -4.0766102029e-04
 -9.6496725746e-05 -1.5834008809e-03 -2.7415694203e-03  1.4675848652e-03  8.0376940966e-01
 -7.1174507141e+00  3.9000775814e+00  6.2311582565e+00  2.1678975224e-01 -5.1777296066e+00
  3.0260472298e+00 -1.6568803787e+00  5.3521947861e+00  6.3121385574e+00  4.5787191391e+00
  1.5865318775e+00 -4.6061444283e+00 -9.2384729385e+00  8.8842248917e+00  2.4024662018e+01
  3.1669445038e+01 -1.6387834549e+01  2.2945859909e+01  7.5880484581e+00  7.6135449409e+00
  1.9094360352e+01  1.3574258804e+01 -3.8917665482e+00 -3.9050991535e+00  2.6883807182e+00
  4.2468447685e+00  1.0893539429e+01 -2.8884857178e+01  7.0124786377e+01 -4.2993421555e+00
  1.8536134720e+01  1.6158246994e+01 -2.0788769531e+02 -1.9734898376e+02  1.9109547424e+02
 -1.2499741364e+02 -1.6609241943e+03 -2.5309746094e+03 -5.2374580078e+03 -3.1500653125e+05
  1.2220204102e+04 -7.2437867188e+04  3.1016085938e+04  1.1734107031e+05 -1.0464699219e+04
 -2.9613291016e+04 -2.7194937500e+04  4.0357519531e+04 -2.8232941895e+03  2.6294604492e+03
  2.2034564453e+04 -1.4115054688e+04 -1.3052167969e+04  5.1656201172e+03 -1.1971064453e+04
 -3.6945234375e+03 -2.2060621094e+04  5.9771645508e+03  1.0257160156e+04 -8.8034560547e+03
  3.2771643066e+03  6.7700429688e+03 -1.0819379883e+04  2.6309736328e+03 -1.1259934570e+04
 -6.4737597656e+02  1.6490308594e+04 -9.9488067627e+02  2.4827290039e+03  4.1560214844e+03
 -2.2197880859e+04 -2.0440890625e+04 -9.7626728516e+03 -2.0510280505e-02 -8.3759859204e-02
  2.9943091795e-02  1.0056142695e-02  9.8429277539e-02 -1.5893992782e-01  5.7761371136e-02
 -1.9794572890e-01  4.6545956284e-02 -1.5820268542e-02  1.7692939937e-01  7.7236719429e-02
 -1.9115298986e-01 -3.1564769149e-01 -1.7575103045e+00  6.8385285139e-01  6.4357954264e-01
  4.5938703418e-01  4.3762069941e-01  1.4912067354e-01  7.9364433885e-02  3.6547880620e-02
  9.3163795769e-02  4.1563667357e-02  1.1999639124e-01  8.7945856154e-02  3.9245270193e-02
  9.5011137426e-02 -3.1254101545e-02  1.1773896962e-01  5.8440037072e-02  2.1549310535e-02
  6.3199304044e-02  3.7948351353e-02  2.3966804147e-02 -1.1792501807e-01  1.3862326741e-01
 -1.5117458999e-01 -5.6892201304e-02 -4.4874787331e-02 -1.3304476440e-01 -2.5004547834e-01
 -3.2184895873e-01 -3.3680894971e-01 -1.5305322409e-01 -2.1194805205e-01 -4.7670844197e-01
 -3.7931457162e-01 -3.2977008820e-01 -3.5503503680e-01 -5.7098639011e-01 -4.5792728662e-01
 -3.7469464540e-01 -3.3291015029e-01 -4.3831309676e-01 -4.1407996416e-01 -3.2867553234e+00
  1.0856023291e-03 -3.7642484531e-03  2.0802458748e-03  3.0656964518e-03 -3.9832214825e-03
  9.9788308144e-03 -1.9949144917e-04  2.0944782591e-04 -2.9381202694e-05  1.3983118697e-04
  2.9592111241e-04 -6.8045934313e-05  1.4859372459e-04 -3.3113380778e-04 -4.1019020136e-04
  1.0351927631e-04  4.4241762953e-04  1.7616056721e-04 -1.3679133554e-04  2.9364094371e-04
  7.6530757360e-04 -1.5589870745e-03 -1.1252730619e-03  1.3371882960e-03 -3.6735998001e-03
  1.9298899919e-02  4.1581850499e-02 -4.1479232907e-01  2.8697946072e+00  3.4047707231e-07
 -4.7664064914e-04  9.3993701739e-04 -1.2318501249e-03 -1.4876822243e-03  1.3333152747e-03
 -9.9565295386e-05  1.2085810304e-03  1.1506167939e-03 -3.0314850155e-03 -2.3061519023e-03
 -5.1586661721e-04  2.1085566841e-03 -1.2807841413e-03 -7.1191219613e-03 -2.8219160158e-03
 -6.3253380358e-03 -1.5477658249e-02  9.4133654784e-05 -3.3853484783e-03  3.9412537590e-03
  2.4032103829e-03  1.8629711121e-03 -5.9357722057e-04  2.8789628414e-04  7.0744054392e-04
  1.7314152792e-03 -2.3666757625e-03  6.8483443465e-04  1.2310357997e-03 -1.3901683269e-03
  2.2335837130e-03 -2.0979361143e-03  1.0175127536e-03  1.4622352319e-03 -2.0821734797e-03
 -3.2830789089e+00  4.0387592316e+00  3.1393507123e-01 -4.4058327675e+00  4.1893534660e+00
 -9.4773964956e-03 -1.4398145676e+00 -2.2800269127e+00 -2.0448548794e+00 -2.6703629494e+00
  2.3853487968e+00  2.8422945738e-01 -5.8511531353e-01  5.6711764336e+00  9.3535554409e-01
 -8.6901321411e+00  9.0346651077e+00 -3.8918724060e+00 -2.5768506527e+00  1.9785752892e-01
 -9.2163097858e-01  2.2020719051e+00  9.7933511734e+00 -1.3736677170e+01  4.8980739594e+01
  5.9617446899e+01 -7.6066040039e+01 -1.5672238159e+02  6.2946151733e+01 -4.7857153416e-01
  3.1245764160e+02  4.3948712158e+02  2.3996519470e+02 -3.3671823120e+02 -3.7295782471e+02
 -1.5797711182e+02 -4.8212432861e+02  3.0643325195e+03  3.3777907715e+03  4.7570917969e+03
 -3.9118874512e+03  4.5384570312e+04  1.5226681250e+05  4.8843789062e+04 -3.4440957031e+04
 -3.4430613281e+04 -1.7740201172e+04 -2.2684757812e+04  1.1745091553e+03 -9.7660195312e+03
 -1.1753888672e+04  9.1333251953e+03 -5.2811293945e+03 -4.2708188477e+03  3.6150781250e+03
 -1.0155825195e+03  2.4587727051e+03 -2.9798911133e+03 -3.1754645996e+03 -3.7597263336e+01
 -2.0728554688e+03 -2.8736533203e+03  1.4144102783e+03 -5.8645917969e+03  4.5565722656e+03
 -2.5727949219e+03 -1.9479986572e+03  4.4602446289e+03 -1.8123303223e+03 -5.5190136719e+03
  3.0147014160e+03 -3.7209123535e+03 -7.8633247070e+03 -1.2400332031e+04 -2.2046532482e-02
 -3.0678160489e-02  1.5527701005e-02  9.8525278270e-02  3.8258747663e-03 -7.1829721332e-02
  5.8155197650e-02 -1.7439229414e-02  3.3923049923e-03 -1.1535584927e-03  6.5222894773e-03
  1.2474177405e-02 -7.8579597175e-03  1.4405803755e-02 -9.8264655098e-03 -6.1907498166e-03
 -1.5953587368e-02  1.7562519060e-03 -6.0006231070e-03  3.0516024679e-02  1.9197609276e-02
  1.3179612346e-02  1.9173907116e-02 -3.2360258047e-03 -1.5453006327e-01 -3.0878579617e-01
 -3.6228179932e-01 -4.4177886844e-01 -2.2088387609e-01 -1.3159184158e-01 -3.2944116741e-02
  2.2031053901e-02  2.6451608166e-02  5.4498448968e-02  7.2718769312e-02  3.3600155264e-02
  3.2826893032e-02  4.5742657036e-02  4.4282615185e-02  2.9257796705e-02 -7.8624729067e-03
 -3.7130314857e-02 -2.2023545206e-01 -1.1798632890e-01 -2.4692726135e-01 -1.4988975227e-01
 -1.7480310798e-01 -9.3601718545e-02 -2.5131917000e-01 -2.5204065442e-01 -2.7868473530e-01
 -2.2585543990e-01 -2.0543204248e-01 -2.2129562497e-01 -2.4750672281e-01 -2.9325610399e-01
 -2.1789824963e+00  3.8350862451e-04  4.2064275476e-04  1.3946917607e-03 -2.4307514541e-03
 -4.2260269402e-04  8.6626567645e-04 -1.9130026340e-04  1.6721524298e-04  1.5952298418e-04
 -2.5451762485e-04 -2.0505649445e-04  1.6860953474e-04  2.0659321308e-05  1.8507953791e-04
  9.9174772913e-05 -2.1449064661e-04 -1.7891314928e-04 -1.9615399651e-04 -3.7787415204e-04
  5.6860147743e-04  2.6107305894e-04  4.5925506856e-04 -1.7931003822e-03  7.1435392601e-04
 -8.6624361575e-03  1.4306647703e-02 -5.3856503218e-02  6.3776057959e-01  4.5522651672e+00
 -4.4992794283e-03  1.5455672517e-02  6.4700781368e-03 -7.3060020804e-03 -4.9090003595e-03
  8.5761630908e-04  5.4241423495e-03  2.8602145612e-03  1.5815068036e-03  1.0201795958e-03
 -1.5827500029e-03  3.3841512050e-04 -3.0258545303e-04 -1.6967235133e-03  1.7413950991e-03
 -9.7758276388e-04  4.7590839677e-04 -8.4207270993e-04 -1.8267390551e-03  1.3560490333e-04
  9.6832611598e-04  1.0685399175e-03  1.1735951994e-03 -2.9879828799e-04 -8.2602683688e-04
 -5.3063139785e-04  4.3428842910e-03  5.9422507184e-04 -6.6054034978e-03  3.0201199115e-04
  2.6977832895e-03  5.9117847122e-03 -9.7161866724e-03  8.7308132788e-04  6.7876102403e-03
 -4.2905393057e-03 -3.1535181999e+00  4.0514192581e+00 -1.5608509779e+00  8.1630754471e+00
 -7.7667808533e-01 -2.9587509632e+00 -2.8108637333e+00 -3.0523872375e-01  2.1700909138e+00
 -1.2927144766e+00  1.2152801752e+00  4.6997594833e+00 -7.7198904753e-01  1.7809189558e+00
  1.8591009378e+00  3.7099555135e-01  6.3282001019e-01  4.0397896767e+00 -7.1645941734e+00
 -5.3206591606e+00  1.6985759735e+00 -7.7391165495e-01 -2.0458407402e+00  2.2825052738e+00
 -1.7728844881e+00  4.1990823746e+00 -1.7385059357e+01  8.3356124878e+01 -1.2229565430e+02
  7.9347900391e+01  1.7214653015e+02 -4.3991779327e+01 -4.7402496338e+02 -6.9508538818e+02
 -1.9161465454e+02  4.5764309692e+02  6.9181195068e+02  1.4169666748e+03  1.7970802002e+03
  7.9195458984e+02 -3.2154378906e+04  5.2993753906e+04 -4.0551421875e+04  1.1935160156e+04
  5.6184843750e+03 -1.5788375000e+04  1.4874249023e+04 -1.1277370117e+04 -3.7920695801e+03
  2.4942055664e+03 -4.7368393555e+03  6.8950000000e+02 -2.4850717773e+03  1.2703060303e+03
  1.7998564148e+02  1.6578651123e+03  2.4075104980e+03 -1.2780803223e+03 -2.8873730469e+02
 -1.1333984375e+03 -6.5914855957e+02  2.3521826172e+03 -9.6364129639e+02  1.6445599365e+03
 -4.0191787109e+03  2.2885461426e+03 -1.2460756836e+03  1.1846252441e+03  3.8431066895e+03
 -8.9830644531e+03  1.0090034180e+04 -4.7960522461e+03  5.5511967773e+03  1.1102305908e+03
  1.0016146302e-01 -1.5585419536e-01  1.3461895287e-01  4.1035618633e-02  1.0796967149e-01
 -2.4853195250e-01  1.8889950216e-01 -7.3304027319e-02  3.4171599895e-02  3.3658362925e-02
 -2.2654177155e-03  1.7501894385e-02 -6.2449444085e-03  2.3351484910e-02 -3.5830117762e-02
 -6.8492688239e-02 -7.4749715626e-02 -5.3650671616e-03 -6.4953286201e-03 -1.1209604330e-02
 -9.6185663715e-03 -1.7228953540e-02  4.8499726690e-03  1.4885455370e-02  2.3384769447e-03
  1.4346629381e-02 -8.1337235868e-02  5.0050746650e-02 -1.0745652020e-01  2.7145385742e-02
  9.3246912584e-03 -3.8775056601e-02 -1.9892852753e-02  2.7671022341e-02  2.3894894868e-02
 -6.6999164410e-03 -1.1567733251e-02 -1.0696352459e-02 -4.3111871928e-03  6.0203573667e-03
  1.2375559658e-02  3.2617081888e-03 -2.5422140956e-02  2.1127320826e-02  2.4547802284e-02
