  5.7583454996e-02  2.6091992855e-02  1.5368253924e-02  5.8293182403e-02 -1.9295245875e-03
 -1.1341199279e-01 -4.4681813568e-02 -1.0267131031e-01 -4.8109509051e-02 -4.5233439654e-02
 -7.6474891976e-03 -4.9805524759e-03 -7.1338661015e-02 -7.0983670652e-02  1.8679406494e-02
 -7.3577053845e-02 -6.6884476691e-03 -2.6966718957e-02 -1.9052095711e-02 -1.1759457178e-02
 -2.1420285106e-02  1.0165655054e-02 -5.4374355823e-03  9.9573098123e-03  1.1810780503e-02
  5.6314967573e-02  1.1973956227e-01  2.1960844100e-01  3.4386843443e-01  2.3865115643e-01
  2.1074163914e-01  4.8669815063e-01  6.1176472902e-01  4.1677489877e-01  2.6739478111e-01
  5.3666114807e-01  4.4148926735e+00  7.3657715321e-01  6.6452217102e-01  4.0900568962e+00
  7.2637047768e+00 -1.1265690327e+00  1.0411474705e+00 -6.2264430523e-01  6.6948729753e-01
  8.9764648676e-01  2.2510849521e-04  3.8233108353e-04  2.2535554599e-03  5.8247195557e-04
  5.7307654060e-04  9.3379756436e-04  1.2584852520e-03  1.9042377244e-04  1.3655994553e-04
 -1.0017997556e-04  2.9213179369e-04  1.2869850616e-04 -2.2517793695e-04  1.3152330939e-04
  2.8415714041e-04 -6.3632884121e-05  2.6797232567e-04 -3.2805677620e-04 -3.9019485121e-04
 -1.3768108329e-04  7.8484757978e-05 -8.2334404578e-04  3.7843241444e-05  5.6464772206e-04
  1.9858598243e-03 -6.8924939260e-03 -1.5215770341e-02  4.1421573609e-02 -1.1174946278e-01
 -2.1680433750e+00 -1.0213501082e-04  3.3840091783e-04 -5.9301364672e-06 -6.5442803316e-04
  1.4303202042e-03 -1.4107846655e-03  7.0497801062e-04  9.9054341263e-05 -3.5948114237e-04
  5.4333941080e-04  2.3619180138e-04 -6.6442758543e-04 -2.2494481527e-04  4.3775295489e-04
  3.0916690594e-04 -8.2415650832e-04  4.2335691978e-04  5.4988020565e-04 -3.6575322156e-04
 -8.3794067905e-05 -3.8892522571e-04  9.8497979343e-04 -5.6422897615e-04  1.9463729404e-04
 -3.6187726073e-04  1.1918163364e-04  3.5879100324e-05  3.7515602889e-04 -2.3278742447e-04
 -2.0286493236e-04  4.1049293941e-04 -5.6401051552e-05 -4.3300754623e-04  7.6811679173e-04
  1.7170530919e-04 -1.1202946771e-03  1.8656008244e+00 -5.8577728271e-01 -2.6183290482e+00
  4.8168301582e+00  9.8353755474e-01 -5.8858933449e+00  4.6954741478e+00 -3.4850575924e+00
 -3.0020740032e+00  7.5798091888e+00 -6.3053913116e+00  6.0100579262e+00 -4.2382621765e+00
  3.0803442001e+00 -1.8938695192e+00 -3.1196846962e+00  3.1401581764e+00  4.1989734769e-01
 -7.2583383322e-01 -1.9731318951e+00 -1.0762507915e+00  9.6134847403e-01 -1.9954667091e+00
  1.9109265804e+00  3.0910079479e+00 -3.1908538342e+00  4.8584342003e+00 -1.0196173668e+01
  2.9698226929e+01 -4.9123069763e+01  2.5466053009e+01 -3.4376174927e+01  7.2390647888e+01
 -6.8919052124e+01  2.1764157104e+02  4.8415355682e+01  4.6147327423e+01  1.9599836349e+01
 -8.0795715332e+02  4.9171542969e+03 -5.7448925781e+04  8.6271304688e+04 -7.7434421875e+04
  9.5300429688e+03  1.4062898438e+04  1.3464055664e+04 -8.2009121094e+03  7.5723491211e+03
 -2.4286442871e+03  1.3149342346e+02  4.7422070312e+02  3.0727312012e+03  1.2948046875e+03
  1.0446723633e+03  2.7375187988e+03 -4.9441439819e+02  6.3192889404e+02  2.0484201660e+03
 -1.5937374268e+03 -4.1569903564e+02 -6.8217694092e+02  7.7432159424e+02  9.5943664551e+02
 -6.2443029785e+02 -2.4971275330e+02 -1.2671074677e+02  1.2835732422e+03  1.1923604736e+03
  1.1582686768e+03  1.0334978516e+04 -1.2671459961e+04  2.5415429688e+03  3.2038708984e+04
  1.1044857031e+05  2.8596205637e-02  1.3012015261e-02 -2.1120076999e-02  8.6998669431e-03
 -8.6960475892e-03  7.2032180615e-03 -1.3384867925e-03 -7.5587681495e-03  4.4016703032e-03
  6.6348714754e-03 -7.0038967533e-04 -4.8445705324e-03  3.2899740618e-03 -3.1470726244e-03
  5.2271969616e-03  1.3143126853e-03  1.5449794009e-03  2.5938206818e-03 -2.8767208569e-03
  5.6528109126e-03  3.9908857434e-04  3.4347884357e-03  6.2645939179e-03 -1.6588006401e-03
  3.3093832899e-03 -1.0475266725e-02  3.8758818991e-03 -1.3708171435e-02  3.1878236681e-02
 -2.9994303361e-02  1.6336949542e-02 -1.7122621648e-03  6.0132327490e-03 -3.2855659723e-02
  2.4878447875e-02  4.7672777437e-03 -1.3730517589e-02  6.5113524906e-03  8.2397190854e-03
 -3.9203222841e-03  1.6624422744e-02 -1.6774313524e-02  1.1443722248e+00 -6.0259717703e-01
 -4.3157801032e-01 -1.8283626437e-01  2.8487467766e-01  1.8093961477e-01  2.9303008318e-01
  5.6928646564e-01  1.6422082186e+00 -2.2539785504e-01  8.3970957994e-01  6.1879801750e-01
  5.8061647415e-01  1.8293750763e+01  4.8128983378e-01 -4.4797602296e-01 -2.2989952564e-01
  1.9704532623e-01 -6.8920354843e+00  4.7697350965e-04  5.6901213247e-04 -7.0120282471e-03
 -9.1261591297e-04 -3.4555911552e-03 -3.3809039742e-03 -7.3985387571e-03 -1.8095964333e-04
 -8.5792911705e-05  2.5471061235e-04 -8.0417325080e-05  1.0232676141e-04  1.7029863375e-04
  2.8270453913e-04 -1.8902431475e-04 -1.6982747184e-04 -1.4119151456e-04 -8.7421663920e-05
 -3.2152381027e-04 -3.2905625994e-04 -1.6208607121e-04 -4.8246511142e-04 -9.9062535446e-04
  7.6119904406e-04 -3.6048232578e-03  5.4453993216e-03  1.8730031326e-02 -5.9414380230e-03
 -1.2311355025e-01  2.1910671890e-01  1.2530760141e-03 -6.2425917713e-04  1.0374467092e-04
 -8.2943547750e-04 -1.4221751189e-04 -1.7943700368e-04 -1.2987554073e-03  1.4379924396e-03
 -5.0180958351e-04 -1.2606880628e-03 -1.4555235794e-05  1.7504192656e-03 -1.0326586198e-03
  2.9230699874e-04  7.6557847206e-04  1.5261871740e-03 -1.7933701165e-03  1.4180862345e-03
 -3.5586819286e-04  5.3519790526e-04  5.1641086429e-06 -1.0685540037e-03 -1.1114665540e-04
  4.0658502257e-04  5.1962822909e-04  1.1724197248e-04 -6.1254977481e-05  1.8379060202e-04
 -1.2529840751e-04 -4.9050437519e-04  1.8077433924e-04 -5.4264365463e-04 -2.8126407415e-04
  2.0358365146e-04 -5.3191044572e-05  1.8931212253e-04 -4.3820381165e-01 -7.4625368118e+00
  4.1586078703e-02  7.8456562757e-01  2.9306676984e-01  1.7178630829e+00 -3.6877224445e+00
  2.9127559662e+00  2.8502006531e+00  4.8042864799e+00 -5.2267193794e+00  1.5657776594e+00
  3.3805403709e+00  1.2814569473e+00 -3.5610558987e+00  8.1822204590e-01 -2.0193781853e+00
  1.1563057899e+00  9.6500468254e-01 -3.6775147915e+00  6.5536375046e+00  3.2605180740e+00
 -4.0365681648e+00 -4.2332074046e-01 -3.1259682178e+00 -9.5921897888e+00  2.9957960129e+01
 -5.0494663239e+01  1.9012950897e+01  6.3914569855e+01 -4.4556346893e+01 -1.7618038940e+02
 -6.7424560547e+01  5.4678039551e+00  1.4878706360e+02 -1.2226907349e+02  1.5211380720e+00
  9.7532339096e+00 -1.4651306152e+03 -3.2454350586e+03  5.6608208008e+03 -4.1639736328e+03
 -5.1204761719e+04  9.6339013672e+03  1.5932508789e+04  5.0951308594e+03  2.4979855957e+03
 -6.7740991211e+03 -5.1515997314e+02 -2.4771098633e+03 -3.5304067383e+03 -7.2422670898e+03
 -6.2518437500e+03 -6.2417031250e+03 -4.3298349609e+03 -7.6892910156e+03 -4.2967416992e+03
 -1.0292519531e+03 -1.7211580811e+03  2.3798222656e+03  9.1896990967e+02 -1.9392001953e+03
 -4.6906976318e+02  1.9980815125e+02  2.9170798340e+03 -2.1033583984e+03 -2.0269996338e+03
 -3.5142641602e+03 -5.8712861328e+03 -2.0367712891e+04 -2.1915525391e+04  1.1505621094e+04
  8.9684984375e+04  1.3416745117e+04  7.2179935873e-02  6.4072102308e-02 -3.5702474415e-02
 -6.1437416822e-02 -5.1805730909e-02 -3.7642020732e-02  3.2804703806e-03  4.3278284371e-02
  7.3302827775e-02 -3.5048861057e-02 -6.2493577600e-02  3.6155063659e-02 -1.3948857784e-02
 -5.4607321508e-03 -5.7400437072e-03 -5.6165903807e-03 -1.1402431875e-02 -3.4762162250e-03
  6.0917534865e-03 -2.0671907812e-02 -6.0904375277e-03 -3.1163352542e-03 -1.3771585189e-02
 -4.6891374514e-03  5.1427553408e-03 -1.9308051094e-02  6.3997067511e-02 -6.4033918083e-02
  3.5176400095e-02  3.1846114434e-03 -3.9634057321e-03 -9.7071332857e-03  1.2395208469e-03
 -4.6632215381e-03  1.2012345716e-02 -1.4343189076e-02 -8.7456600741e-03  2.4603419006e-02
  3.0959951691e-03 -1.1166060343e-02 -9.1661540791e-03 -2.4391539395e-02  9.0215571225e-02
  8.1650570035e-02  2.1914863586e-01  1.2032485008e-01  4.0945440531e-02  2.2477425635e-01
  1.7435444891e-01  1.8296280876e-02  9.3719057739e-02  8.2311898470e-01 -7.9626545310e-02
 -1.1740393005e-02  1.5930006504e+00  9.5804221928e-02 -5.7486414909e-01  3.1489902735e-01
 -2.2919985652e-01  2.9467040300e-01  1.8519065380e+00  2.1595213911e-04 -1.3901720522e-03
  8.1937424839e-03  3.8089859299e-03  1.0176612064e-02 -3.7859354634e-03  2.8550704941e-02
  5.5172364227e-05  8.4787403466e-05  2.3920417880e-04  1.8586857186e-04 -2.5886471849e-04
  1.8196285237e-04 -2.0169877098e-04 -3.7757141399e-04  3.4434339614e-04 -2.0381374634e-04
 -1.0295086395e-04 -4.2504866724e-04 -2.8577214107e-04  5.0064438256e-04 -9.5058331499e-04
  1.4850407606e-03  8.0111931311e-04  1.2495230185e-03  5.8692451566e-03  9.7245015204e-03
  1.8570534885e-02  2.7927654982e-01 -7.9578537941e+00 -6.4061180456e-04 -2.8168795325e-05
  7.0659467019e-04 -1.8990547396e-03  8.4894883912e-04  1.8095459382e-04  8.1152806524e-04
 -3.3561210148e-04  6.7192903953e-04  1.9362712046e-03  1.3434284483e-04  3.7180869840e-03
 -6.3900626265e-04  2.1214596927e-03  1.9218865782e-03  8.2222453784e-05 -1.0911609279e-03
 -2.6409639977e-03 -7.2115665535e-04 -1.2120365864e-04  6.4717326313e-04 -1.7968731117e-04
 -9.6495292382e-04  6.8913324503e-04  3.3176693250e-04 -2.8649825254e-05 -3.1902422779e-04
 -4.7141735558e-04 -2.1328404546e-04  4.1279464494e-04 -7.3009687185e-05  8.6754334916e-05
  1.0748378700e-03 -1.1782920919e-03 -2.4782281253e-04 -3.9211503463e-04 -4.6755486727e-01
 -2.3766186833e-01  1.1755752563e+00 -1.5289612114e-01 -2.8002634048e+00 -6.3228559494e+00
 -3.3821504116e+00 -3.4896273613e+00 -2.4692573547e+00 -4.1639676094e+00  4.2664499283e+00
  2.5822718143e+00  1.1640747070e+01  3.6406812668e+00 -1.5564198494e+00 -1.0764391422e+00
 -6.6828584671e+00  4.8284163475e+00  6.4425334930e+00  1.2938151360e+00  6.4618415833e+00
  1.6072429657e+01  5.6052921295e+01  8.0424514771e+01  6.8918243408e+01  6.4498443604e+01
  4.6768825531e+01  7.0732307434e+01  3.8534145355e+01  8.2226257324e+01  7.4727249146e+01
  1.4330772400e+02  1.8678762817e+02  1.6158723450e+02 -1.1978395081e+02 -2.5260151672e+02
  6.8011602783e+02 -1.7783915710e+02 -7.3693164062e+02 -1.2851279297e+03 -1.3926451562e+05
 -1.5192337646e+03 -2.7924863281e+04 -2.2703746094e+04  2.0565757812e+04 -2.0151201172e+04
  1.4024255859e+04  1.3944713135e+03  9.2033984375e+02 -7.9036171875e+03  4.4718510742e+03
 -5.6593627930e+03  3.0789450684e+03 -3.8125722656e+03 -3.9188923340e+03 -4.6733273315e+02
 -4.3914511719e+03 -6.9456137695e+03 -9.7706352234e+01  5.6338056641e+03 -1.3538089600e+03
  6.5331391602e+03  4.0607756348e+03 -8.7469799805e+02 -1.1951578369e+03 -9.3361608887e+02
 -2.1812741699e+03 -8.7366982422e+03  5.1095332031e+03 -6.5598081055e+03  8.0546557617e+02
 -7.1819829102e+03  2.0324371338e+03 -5.2264775391e+03  8.8413722813e-02  5.4924130440e-02
 -1.1003722250e-01 -1.4365214109e-01 -1.3806373812e-02 -1.2324760854e-01 -5.8317091316e-02
 -1.9366929308e-02  4.6190600842e-02  1.3880656660e-01  5.4793753661e-03 -1.6422349215e-01
 -7.6983846724e-02 -4.1248559952e-02 -1.9232833758e-02 -6.3078001142e-02 -2.9626762494e-02
  8.2855768502e-02  5.8959856629e-02 -6.9485165179e-02  4.3270520866e-02 -3.2328598201e-02
 -7.4495241046e-02  7.6264306903e-02  1.2580409646e-01 -2.7071701363e-02  4.1372328997e-02
 -5.9645172209e-02  3.7576965988e-02 -4.6649731696e-02 -1.5762370080e-02 -4.4564548880e-02
 -1.3989615254e-02 -1.5666978434e-02 -8.2508847117e-02  5.7941939682e-02  1.4827767387e-02
  6.1390236951e-03 -5.4907914251e-02 -1.5728082508e-02 -1.2090566754e-01 -5.0228431821e-02
 -5.8902852237e-02 -2.7746218443e-01 -2.3605354130e-02 -7.0435152156e-04 -1.9257484376e-01
 -1.8072029948e-01  8.0625817180e-02 -2.7063965797e-01 -1.2101514637e-01 -1.0256557465e+00
 -2.5478681922e-01 -2.3853270337e-02  5.0081167370e-02 -5.7513427734e-01  3.7726566195e-01
 -1.9865716994e-01  1.6122756898e-01 -3.2331061363e-01  5.9971147776e-01 -4.9994845176e-04
  6.6932034679e-04 -2.2407779470e-03  3.4460893366e-03  8.8500203565e-03 -5.4469034076e-03
  8.5871387273e-03 -1.8509654910e-04  2.5660078973e-04 -2.3385621898e-04 -8.2392609329e-05
  1.3207610755e-04  2.7625685107e-05  6.5726715547e-05 -3.8751002285e-04 -3.7222646642e-04
 -8.9024302952e-07  9.4030801847e-05 -1.4296095469e-04 -5.8546656510e-04 -9.8020688165e-04
  5.4874259513e-04 -8.8128028437e-04  1.5615343582e-03  3.0922619626e-03  8.0669421004e-04
  1.1091660708e-02 -6.7566379905e-02  6.5645463765e-02 -1.7780355215e+00  1.6433409182e-03
  3.0390333268e-04  1.9556293264e-03  2.5854636915e-03  4.7884350352e-05 -4.2117954581e-04
 -2.8554495657e-04  4.8682224005e-03  3.5388781689e-03 -1.8784243148e-03  6.1911535449e-03
  7.5413880404e-04  2.5240166578e-03 -1.8735755002e-03  4.4022258371e-03 -4.1519073420e-04
 -2.4432104547e-03 -1.3475135202e-03 -1.4212302631e-03  1.8954310799e-03  1.0947132978e-04
  2.0135396626e-03  6.6401535878e-04  1.1769968551e-03 -1.7740300391e-03 -1.7301776679e-03
  4.1878424236e-04 -1.2200323399e-03  3.2643286977e-04 -1.0648451280e-04  2.7991156094e-04
 -3.1823434256e-05  1.3995168265e-03  6.4293743344e-04 -4.2354303878e-04 -2.1864154842e-03
 -6.4884748459e+00  2.8021410108e-01  3.7214894295e+00  2.1445167065e+00 -4.0099749565e+00
 -3.7362272739e+00  5.0835380554e+00 -1.0480870008e+00  7.9651265144e+00 -1.0390715599e+00
 -3.5622396469e+00 -4.7425189018e+00 -1.5136134148e+01 -8.0573015213e+00  1.7438404083e+01
  5.1453636169e+01 -1.3211502075e+01 -7.7802383423e+01 -8.7432718277e+00  2.9759895325e+01
 -2.0373945236e+01 -2.9070341587e+00 -2.1002473831e+01 -2.6202015877e+00  3.6668815613e+01
 -7.3735771179e+01  1.2551531792e+01  5.9935312271e+00  2.6211620331e+01  3.9662853241e+01
 -8.9062820435e+01 -1.1803099060e+02  1.2841325378e+02 -2.2346031189e+02  7.7083319092e+02
 -2.0513270569e+02  7.9025207520e+02 -3.6408366699e+03 -5.0091407776e+01  2.8734931641e+03
  1.9436092188e+05  3.9833675781e+04 -3.4666554688e+04  5.6316835938e+04 -1.5317741211e+04
 -3.8865817871e+03  1.5018229492e+04 -3.5120413208e+02 -1.0749507812e+04 -3.6335559082e+03
  7.5902148438e+03  1.0374606445e+04 -8.1266660156e+03  7.5378710938e+03 -4.7666904297e+03
  3.1337485352e+03 -6.5688061523e+03  2.6289035645e+03 -5.6376127930e+03 -3.5113591309e+03
  2.3187329102e+03  3.8241416016e+03  1.7497178955e+03 -6.8587685547e+03 -1.4035942383e+03
 -7.1536835938e+03  2.9403906250e+03  5.0269804688e+03 -5.3742207031e+03  1.3295917969e+04
 -7.4686601562e+03 -5.2770024414e+03  3.6668656250e+04  7.3269664062e+04  5.4954007268e-02
  1.4391507022e-02  6.9982461631e-02 -6.9535136223e-02  3.7679929286e-02 -3.0562581494e-02
  3.3852991182e-03  4.4241040945e-02  8.6112216115e-02 -5.0308968872e-02 -1.1150301434e-02
 -2.6997476816e-02  4.0023289621e-03  9.1801345348e-02 -2.7832778171e-02  1.6705375910e+00
 -3.8945698738e-01 -3.5307785869e-01 -1.4312353730e-01 -3.2205459476e-01 -1.1973330379e-01
 -1.1495453864e-01 -1.2964853644e-01 -1.3226623833e-01  8.1207260489e-02 -3.0271357298e-01
 -8.3015471697e-02  8.4764771163e-02 -4.8965308815e-02 -1.1619586498e-01  5.7743616402e-02
 -9.7084693611e-02  9.5541097224e-02 -1.5911991894e-01  3.8687948138e-02 -2.1328495815e-02
  5.7669762522e-02  7.2593487799e-02  1.7890743911e-02  3.3555887640e-02  1.0544789582e-01
  1.6111154854e-01  3.3110824227e-01  4.0326616168e-01  3.2796558738e-01  3.3030223846e-01
  3.7513318658e-01  3.1678175926e-01  2.3583142459e-01  3.4914112091e-01  2.4291630089e-01
  3.4251010418e+00  3.5572880507e-01  4.9125850201e-01  4.2055244446e+00  3.8772888184e+00
 -6.4844495058e-01  6.3086676598e-01 -8.2369387150e-01  1.8923972547e-01  1.2907216549e+00
  5.7443772675e-04  6.2421513576e-06  6.9831148721e-03  1.1888039298e-03  2.7011663187e-03
 -6.4693368040e-04  7.8451046720e-03 -9.6961543022e-05  2.4775956990e-04 -1.0383844710e-05
  2.7769309236e-04 -4.6879649744e-06 -1.4863538672e-04  1.2174292351e-05 -1.1524975707e-04
  2.2769226052e-04  2.5498474133e-04 -3.6661702325e-05 -3.5307396320e-04  1.5573238488e-04
 -5.1793840248e-04 -8.0475996947e-04  3.4033387783e-04 -1.8464101013e-03 -1.1878719088e-03
  2.5629797019e-03 -2.1753717214e-02 -3.9764758199e-02  6.8912124634e-01  7.8762426376e+00
 -4.6225806000e-04  9.4305496896e-04 -9.3893095618e-04  5.4619519506e-04 -4.9445824698e-04
  7.1616738569e-04 -3.4039589809e-04 -7.1920681512e-04  8.7492511375e-04  2.1198566537e-04
 -4.2478268733e-04 -5.6384946220e-04 -8.0462521873e-04  6.6980009433e-04 -3.5887218546e-03
  5.2035273984e-03 -2.3946517613e-03 -6.3558184775e-04  7.4636322097e-05 -3.2152334461e-04
 -3.7632751628e-04  8.4819621406e-04  2.4830066832e-04  4.6974353609e-05 -5.0430669216e-04
  1.6975516337e-04 -2.2255405202e-04 -1.3309966016e-04 -1.1132818327e-04  4.8186466302e-05
 -4.5596517157e-04  5.0841376833e-06  6.4803822897e-04  2.5196772185e-04 -5.8477162383e-04
  6.5433944110e-04  1.4162586927e+00  5.3424634933e+00 -3.1196491718e+00  1.1371150017e+00
 -1.5625586510e+00  2.6459417343e+00  2.4738438129e+00 -4.1679033637e-01 -1.9370667934e+00
 -2.0515801907e+00 -7.7090253830e+00  2.4479134083e+00  5.4655957222e-01 -1.0668880306e-02
  1.3588606119e+00  3.8055202365e-01  3.3427553177e+00 -1.0945854187e+00  3.9052717388e-02
  1.0603553772e+01 -7.6489033699e+00 -2.3348219395e+00  7.4587650299e+00  4.7311234474e+00
 -1.7491523743e+01  1.7623659134e+01  2.2369077682e+01 -1.7507583618e+02  2.1815206909e+02
 -9.0184654236e+01  1.1016101074e+02  2.5051353455e+02  6.5305442810e+00 -1.9755979538e+01
 -2.2431855774e+02 -9.5931419373e+01 -2.0323718262e+02 -2.4374760437e+02  2.7121389771e+02
  4.4522702026e+02 -2.5347681641e+04  4.3410917969e+04  4.4659906250e+04 -2.5112714844e+04
  8.8753535156e+03 -7.8470380859e+03 -2.7559897461e+03 -1.5211325684e+03  2.5058673096e+02
 -2.3077536621e+03  1.7099940186e+03  2.1167426758e+03  3.8555698242e+03  7.5599737549e+02
  1.0870701904e+03  2.7812202148e+03  1.2017572021e+03 -2.1861257324e+03  8.4762731934e+02
 -1.5294755859e+03  3.6579560547e+03  3.0104858398e+03  4.4851289062e+03 -3.9230834961e+02
  3.4952780151e+02 -4.4840014648e+03 -3.0289609375e+03 -7.4506533203e+03 -3.2950429688e+03
  2.0772395020e+03  2.1275519531e+04  4.6208203125e+04 -2.5145130859e+04 -1.4036385742e+04
  2.2575581446e-02 -2.8104480356e-02  5.8832569048e-03 -1.3646611013e-02 -1.5363503247e-02
 -1.9305143505e-02  1.5378106385e-02  3.5994770587e-04  2.1607480943e-02 -6.9329112768e-02
 -2.7562547475e-02  9.0354867280e-02 -4.0277235210e-02 -1.4052185230e-02  1.2967184186e-02
  1.7841340741e-03  1.1881416664e-02 -3.3448217437e-03 -1.3156883419e-02  1.2176640332e-02
 -8.4931934252e-03  1.2844381854e-03 -3.1249780208e-02  1.7586257309e-02 -7.1363173425e-02
 -1.6149941832e-02  1.2442747504e-01 -3.6091521382e-01  2.6233229041e-01 -7.4475772679e-02
  5.6669797748e-02 -3.2082751393e-02  1.3224776834e-02  1.5729911625e-02 -2.1235237364e-03
 -1.1294466676e-03  7.5377393514e-03 -1.1567015201e-02 -3.0590032111e-05 -1.5771471662e-03
 -4.6938816085e-03 -1.6993416473e-02 -9.0152479708e-02 -2.2409933805e-01  2.8440389782e-02
 -2.0379087329e-01 -4.8890534788e-02 -1.3721655309e-01 -1.1887162179e-01 -2.8743243217e-01
  1.0313163511e-02 -1.3625936508e+00 -3.5530608892e-01 -8.5230544209e-02 -8.9018166065e-01
 -1.6306930780e+00  3.2098004222e-01 -2.1074785292e-01  2.6631328464e-01 -3.1131224707e-02
 -1.2906657457e+00 -7.2260852903e-05  8.2398109953e-05 -2.9752362520e-02  1.2121388689e-02
 -5.9599237284e-04 -4.3617407791e-03  2.1625803784e-02  9.1072230134e-05  2.2992615413e-04
 -1.1591103976e-04 -2.4611034314e-04  2.3674067052e-04 -3.7692065234e-04 -2.7308249264e-04
  1.8460532010e-04  6.0004331317e-05 -3.8881896762e-04  3.6057893885e-04  2.8688562452e-04
  2.5764334714e-04  5.3729850333e-04  1.1076932424e-04  5.9565604897e-04 -2.0014841575e-03
 -2.3606824689e-03  2.6407106780e-03  7.1723158471e-03 -3.4994024783e-02 -6.2153035402e-01
 -5.9022383690e+00  2.9131295742e-04  4.8986541515e-05  1.5980784083e-03  8.7703927420e-04
  2.0631299412e-04  1.1866198620e-03  1.4894168125e-03  1.9612526521e-03  3.1175379991e-04
  1.8739521329e-04  2.2338495910e-05  1.6567959683e-03  1.5890332870e-03  3.1997729093e-03
  3.4656410571e-03 -6.4838118851e-04 -9.0415738523e-03 -5.0365598872e-03 -1.1348164640e-02
 -8.6604394019e-03 -4.2396625504e-03  1.2586629018e-03  2.6307071093e-03 -2.0756227896e-03
  4.5903251157e-04 -1.0127796559e-03 -2.9411187279e-04  1.0574452608e-04  1.5783134149e-03
 -1.1577110126e-04  2.3441873491e-03 -8.3383888705e-04  9.3638710678e-04 -4.7812092816e-04
  3.4656345379e-03  3.2035114709e-03 -3.6113274097e-01 -1.7732681036e+00  2.1196658611e+00
 -7.7878274918e+00 -7.3967185020e+00  2.1327764988e+00  2.8475840092e+00  5.0761108398e+00
  2.1626718044e+00 -5.2575154305e+00  2.1490719318e+00  3.5863110423e-01 -2.3364973068e+00
 -6.1253800392e+00 -6.5136241913e+00  9.2094011307e+00  6.1537270546e+00 -8.9578189850e+00
  6.0142898560e+00  7.8601326942e+00  6.3259668350e+00 -1.6458915710e+01 -1.1590976715e+01
  2.2042140365e-01 -7.8813772202e+00  1.9859317780e+01 -4.1565265656e+00 -8.1628093719e+00
 -3.5419780731e+01 -9.7525039673e+01 -2.2048800659e+02  3.2432586670e+02  5.9967175293e+02
  1.0230472412e+03 -3.0141931152e+02  2.4029990234e+03 -1.1105374146e+02  2.8301479492e+03
  4.6419252930e+03 -2.2912534180e+03  1.5290031250e+05  1.2911999219e+05 -6.4356402344e+04
 -4.0958808594e+04 -1.5625746094e+04  1.5370306641e+04  3.1835501953e+04  1.9188779297e+04
  1.4083567383e+04  1.2420271484e+04 -3.4028830566e+03 -8.7949892578e+03  3.9255354004e+03
 -1.6788669922e+04  7.2842202148e+03  8.2353691406e+03 -2.9792673340e+03 -3.3095983887e+03
  1.8708562500e+04  5.3140332031e+03  5.7947592773e+03  8.9217895508e+02 -1.4356691895e+03
 -3.4728437500e+03 -2.1600444336e+03 -2.8217480469e+03 -4.7973710938e+03  1.1003480469e+04
  1.6323287354e+03  1.0353283203e+04  2.3390404297e+04 -7.5658974609e+03 -9.3169345703e+03
 -4.7480773438e+04 -5.9315532446e-02 -5.5232025683e-02  1.4319209754e-01  2.6683162432e-03
 -8.7226442993e-02 -7.6653202996e-03 -5.1847249269e-02  1.2099406123e-01  1.1931958795e-01
  6.0530640185e-03 -8.3782434464e-02  6.7265756428e-02 -3.1557101756e-02 -1.5133171342e-02
  2.3312626407e-02 -1.1411000043e-02  5.2771568298e-02 -2.2196747363e-02  5.4280634969e-02
  1.9138412550e-02 -4.7888990492e-02 -1.7086276785e-02  7.3217689991e-02 -2.3169269785e-02
 -6.7675292492e-02 -3.8414862007e-02 -6.2484759837e-02 -2.0771998912e-02 -1.0571193695e-01
  4.3654996902e-02 -1.1267226189e-01  3.8098562509e-02 -1.9511849880e+00 -1.8334404230e+00
 -4.4421148300e-01  2.1640276909e-01  5.3553335369e-02 -1.2404651940e-01 -1.8740312662e-03
  1.3114054501e-01 -2.6341422927e-03 -1.3152900152e-02 -1.2495246530e-01 -3.8253626227e-01
 -2.8350025415e-01 -4.3825474381e-01 -6.0909122229e-01 -4.2004412413e-01 -5.3447246552e-01
 -3.5050848126e-01 -3.6189430952e-01 -3.7261178493e+00 -4.6530726552e-01 -4.3710041046e-01
 -6.1900634766e+00 -6.3494873047e+00  9.6767818928e-01 -1.2537982464e+00  6.4162772894e-01
 -6.2289875746e-01 -6.9917196035e-01  5.8587850071e-04  3.1765468884e-04  2.9606783763e-02
  2.6621436700e-03  6.8737138063e-03 -5.2104871720e-03  1.6525760293e-02 -6.1048136558e-05
  2.0641622541e-04  1.7667982320e-05  2.0862584643e-04  3.5103637492e-04  2.7846885496e-04
 -2.4692449369e-04 -1.3774461695e-04  2.9903062386e-04 -1.3312003830e-05 -3.0689983396e-04
 -2.4793064222e-04  8.0896003055e-05  9.8219502252e-04  6.9180439459e-04 -1.0318130953e-03
 -1.9223521231e-03  1.7620781437e-03 -1.7910371535e-03  1.5704313992e-03 -5.4712269455e-02
 -3.7517917156e-01  1.8301908970e+00 -2.5422434555e-04  1.0227214079e-03  1.3339145808e-03
  3.7151266588e-04  2.1356916113e-04 -2.7405598667e-04  5.3059868515e-04  2.5838112924e-03
  5.4626283236e-04  5.3180957912e-04  4.7245531459e-04  1.4196973061e-03 -3.5688714706e-04
 -1.9454628928e-03 -6.6903959960e-03 -1.2821258977e-02  5.8911077213e-04 -5.6414133869e-03
 -6.9009382278e-03 -2.5252131745e-03  2.3505131248e-03  1.6850695247e-03  1.6021762276e-03
 -1.5273953322e-03 -1.1967925820e-04  1.7432490131e-04 -1.9072287614e-05  1.3836098369e-03
  5.8428035118e-04 -2.6459337096e-04 -3.5173987271e-04 -3.8735577255e-04  7.0331589086e-04
 -1.2781743426e-03  1.0784945916e-03  3.1787329353e-03 -2.6513452530e+00  4.8844060898e+00
 -1.3847223520e+00  1.6529446840e+00  2.6328904629e+00 -1.9541412592e+00 -2.4167846888e-02
  3.7727937698e+00 -3.7046602368e-01 -6.8205065727e+00 -5.9032621384e+00 -8.0265054703e+00
  7.2296433449e+00 -4.8960861564e-01 -2.8572118282e+00  2.8311846256e+00  4.6646747589e+00
 -4.5918140411e+00  2.8770279884e+00 -1.9504377365e+01  8.1129074097e+00 -1.2346639633e+01
  6.7479634285e+00 -9.6138918400e-01  1.0322381020e+01 -1.5683876038e+01 -1.6569914818e+00
  1.9748364687e+00  9.9293403625e+01 -8.0075088501e+01  3.7274252319e+02  3.6729675293e+02
  1.3901960754e+02  1.3426391602e+01 -6.2019726562e+02 -5.6743774414e+02 -2.4076784668e+03
 -7.2252929688e+02 -3.5172116089e+02  9.1224814453e+03  3.3001081250e+05 -1.5193667188e+05
  7.7303843750e+04  1.5257208984e+04  1.0083534375e+05 -4.4973648438e+04 -6.1105554688e+04
 -9.8692929688e+03  8.3078378906e+03  1.0120910156e+04 -3.1950056641e+04  4.7267089844e+03
  6.7366640625e+03 -1.4825726562e+04  1.0339251953e+04  1.4489641113e+03 -4.2451401367e+03
 -4.6345688477e+03  6.1028144531e+03 -4.7741884766e+03  6.5149106445e+03 -2.7535495605e+03
 -8.3580488281e+03  2.4767033691e+03 -1.4248865967e+03 -6.4183654785e+02  8.0751044922e+03
 -9.3946962891e+03  2.4333610840e+03  6.3883247070e+03 -1.9214140625e+04 -1.0873104492e+04
 -1.7535337891e+04 -4.5720359375e+04  2.4194263387e-03  3.5399690270e-02 -1.1376956105e-01
  8.3506509662e-02  2.0411252975e-02 -8.4252715111e-02  2.4380233139e-02 -1.3114885427e-02
  6.7763715982e-02 -8.5430033505e-03  1.2556508882e-03  2.8393782675e-02  1.7782857642e-02
  2.0122795831e-04 -3.8291648030e-02  8.3378188312e-02 -1.7690341920e-02 -5.0411079079e-02
 -1.1616665870e-02  1.1870278046e-02  1.9419383258e-02  5.7998909615e-03 -2.4162009358e-02
 -3.7646755576e-02 -5.7186383754e-02  5.0224527717e-02 -2.0642426610e-01 -1.4032025635e-01
  2.1062061191e-02 -2.0042474270e+00  7.6663587242e-03  3.4860339947e-03  1.9177928567e-02
  3.6485768855e-02  4.4353134930e-02  4.3420743197e-02  2.5069231167e-02  5.4092876613e-02
  3.3547013998e-02  3.7125200033e-02  3.2092772424e-02  1.8326770514e-02 -3.2691127062e-01
 -4.0219718218e-01 -6.8775154650e-02 -1.8977014720e-01 -2.3791897297e-01 -1.7931878567e-01
 -3.9007249475e-01 -3.3770468831e-01 -6.1202865839e-01 -2.6325845718e+00 -3.2664850354e-01
 -5.5628889799e-01 -6.0521683693e+00 -6.8583168983e+00  9.0811961889e-01 -8.0215513706e-01
  5.7759851217e-01 -4.4924822450e-01 -8.6983269453e-01 -1.3216675725e-03 -6.0000520898e-04
  1.1311788112e-02 -4.4818012975e-03 -7.8116136137e-04  6.2708463520e-03  2.9754726216e-02
 -3.2820904744e-04  1.1235592683e-04 -3.1408760697e-04 -7.3158844316e-05 -3.0738036730e-04
  1.5804079885e-04  9.6986996141e-06 -4.1803336353e-04  1.3864728680e-04  1.4074097271e-04
 -5.7912163902e-04 -3.4843693720e-04 -1.8145680951e-04 -9.2097261222e-04  2.9884782271e-04
 -3.1660971581e-04 -4.8794737086e-04 -6.1940768501e-04  5.3413780406e-03 -1.1492599733e-02
 -1.2823136523e-02  4.0780797601e-01  1.9914762676e-01  1.3670154149e-03  1.0299661662e-03
  4.7556715435e-04  8.6560490308e-04  6.1734503834e-04 -2.7058963315e-04  4.7377191368e-04
  1.2112300610e-03 -2.0829048299e-04  5.7224382181e-04 -1.2704073451e-03 -9.6809316892e-04
  1.3517274056e-03  3.3910246566e-03  7.0074328687e-04  2.2844166961e-03  1.7284223577e-04
 -7.5884548778e-07 -1.0979276849e-03 -5.3277838742e-04  1.3732698280e-03  1.0909638368e-03
 -9.7973970696e-04 -1.7604313325e-04  9.8456838168e-04 -5.1563611487e-04  4.9317604862e-04
 -7.0221914211e-04  1.5095183335e-04  7.8870030120e-04 -2.6122550480e-04  1.7756285379e-03
 -1.0916675674e-03 -9.0414885199e-04  1.2026645709e-03 -9.4374449691e-04  9.1049003601e+00
  4.8169679642e+00 -1.2494438887e+00 -4.1615657806e+00 -3.0168950558e+00  2.6466586590e+00
 -1.5385401249e+00  1.0667698383e+00 -4.3325514793e+00 -5.3256654739e+00  4.2493176460e+00
 -5.8939180374e+00  2.1539926529e+00 -4.4637970924e+00 -3.1396808624e+00  8.9001673460e-01
 -6.9913940430e+00 -1.8313406408e-01 -4.7699666023e+00 -6.7570805550e+00 -1.1361572266e+01
 -2.2214439511e-01 -2.2801177979e+01 -1.1217030525e+01  1.6645248413e+01 -2.7965337753e+01
 -2.6606223583e+00  5.2634882927e+00 -2.6433710098e+01 -4.5586647034e+01  4.0897785187e+01
 -3.2909985352e+02  1.2298211670e+02  2.3728477478e+02 -1.2465281677e+02  1.2197309570e+03
 -1.1948085938e+03  1.0731632080e+03  1.4777886963e+03 -2.6325764160e+03  1.2064736719e+05
 -6.1564328125e+04 -7.9960062500e+04  6.9942875000e+04  1.2552536011e+02  3.9870964844e+04
  7.9158095703e+03  2.4234824219e+04 -3.0345820312e+04  9.7852744141e+03 -2.9482816406e+04
  3.2372609863e+03  8.0111074219e+03 -9.8401220703e+03 -6.9039711914e+03  1.4008504883e+04
  1.1552114258e+04 -1.6237467041e+03  3.7454431152e+03 -1.0962477539e+04  6.4072817383e+03
  4.0445642090e+03 -2.9935109863e+03 -6.9964853516e+03 -2.0766821289e+03 -6.1058427734e+03
 -3.9115297852e+03 -3.4784648438e+03  1.1287305664e+04  6.7408232422e+03  9.5195068359e+03
  1.3459536133e+04  1.4117557617e+04  1.8468156250e+04 -3.3823881298e-02 -2.5835677981e-02
  1.7388768494e-02 -7.0607803762e-02  2.6615649462e-02 -2.2563947365e-02  6.5902397037e-02
  1.0825841688e-02 -3.6828845739e-02  8.6562052369e-02 -1.0263641924e-01 -2.8461337090e-02
  1.1370867491e-02  2.4609986693e-02  6.7268408835e-02  1.7030838877e-02  4.6273037791e-02
  1.2932404876e-02  2.8275668621e-02  8.3485230803e-02  9.1192826629e-02  1.8364723027e-01
  9.5250822604e-02  1.0547646135e-01  1.8990250304e-02 -1.9783260301e-02 -2.4154517800e-02
  2.0070107654e-02 -5.7293839753e-02 -4.7409262508e-02  3.5682111979e-02 -3.9964029565e-03
 -7.2980962694e-02  3.4946619999e-03 -3.6577682942e-02  3.2236766070e-02  7.8555673361e-02
 -9.3657717109e-02  4.1250370443e-02  5.2903290838e-02  2.8484383598e-02  1.8148356676e-01
  1.6833490133e-01  2.3665991426e-01  2.1124453843e-01  3.7163540721e-01  3.4388056397e-01
  2.7084743977e-01  9.6808388829e-02  4.7431787848e-01  1.7908121645e-01  2.4230921268e+00
  5.1953303814e-01  2.7986082435e-01  2.3330295086e+00  4.4360489845e+00 -1.1449610442e-01
  3.5712558031e-01 -3.1204590201e-01 -1.9618615508e-01  1.5701334476e+00  7.3555333074e-04
 -6.6218205029e-04  9.8963277414e-03  2.1767509170e-03 -3.1906012446e-03  1.4266998041e-03
  2.2782874294e-03 -9.7053612990e-05  7.2441223892e-05  5.7781879150e-05  1.8037465634e-04
 -2.4170023607e-05  3.0260541826e-04 -2.2264775180e-04  2.0773439610e-04 -2.3407852859e-04
 -2.2765912581e-04 -2.0546029191e-05 -2.4553140975e-04  4.0865610936e-04  1.7834291793e-04
 -8.1695656991e-04  6.8241159897e-04 -1.6929678386e-03 -3.3569615334e-03 -2.4653277360e-03
 -9.2415269464e-03  5.9946078807e-02 -5.5107623339e-01 -4.7720332146e+00  2.1064963657e-03
  4.3163141527e-05  1.7814642342e-04  7.9829356400e-04  4.9496558495e-04 -1.3112610904e-03
  5.2281474927e-04  1.9758292183e-04 -2.4185515940e-03 -2.0477436483e-03 -1.7463928089e-03
 -2.7523657773e-03 -2.6360473130e-03 -2.5266429875e-03 -4.6994161676e-04 -2.4832370691e-03
 -7.6424458530e-04 -7.5619050767e-04  1.8414747901e-03  7.7298161341e-04  6.4833101351e-04
 -8.6757284589e-04 -1.1834762990e-03  2.6948214509e-04  6.4157653833e-04  9.1519963462e-05
  7.4501498602e-04 -1.2467316992e-04  2.4335640774e-04  4.9024156760e-04 -7.7897298615e-04
  3.9915772504e-04 -3.5364655196e-04  8.0833386164e-04 -1.1084481375e-03  2.8742786963e-03
  1.0539723635e+00 -1.0267057419e+01 -6.1210530996e-01  1.1089528799e+00  9.5306962729e-01
  4.8627657890e+00  3.1313631535e+00 -5.8643779755e+00 -9.8391036987e+00 -4.8221859932e+00
 -6.3371062279e+00  5.4251861572e+00 -4.7781917453e-01 -5.0995612144e+00  3.0613882542e+00
 -6.6400313377e+00 -1.5406442881e+00  2.2135047913e+00 -1.6824613571e+01  2.3211469650e+00
  9.5808086395e+00 -2.9803995132e+01 -1.2704954147e+01  1.4870965004e+01  4.8414030075e+00
  1.9777004242e+01 -1.8909919739e+01 -3.4915721893e+01  1.4987510681e+01 -7.6434616089e+01
 -6.5404563904e+01  1.0822422791e+02 -5.4802188873e+00  2.8174401855e+02 -5.0733013916e+02
  6.5679223633e+02  1.6126954346e+03  3.0296276855e+02 -2.7767819824e+03  6.8264160156e+02
 -2.3187032812e+05 -2.0422959900e+02 -8.9045734375e+04  7.2228476562e+04  3.2762703125e+04
 -3.0743115234e+04  1.2523614258e+04 -7.9009741211e+03  1.2305735352e+04  1.5192164421e+01
 -1.4021169434e+03  1.9001322266e+04 -1.6237156982e+03 -1.9928970947e+03 -3.0204184570e+03
 -8.4816345215e+02  6.2786499023e+03  4.4483407593e+02 -4.0537375488e+03  3.0449606934e+03
 -3.4418551636e+02  6.5868789062e+03 -2.4248488770e+03 -3.2880800781e+03 -3.8338962402e+03
 -6.1566894531e+02  7.6276313477e+03 -6.3159729004e+02 -4.8569052734e+03 -7.7152233887e+02
  6.5095161133e+03 -7.4884199219e+03  1.6708828125e+04 -4.2424457031e+04 -2.5051197410e-01
  1.1720152944e-01  3.5031303763e-02  2.0078173280e-01  2.0831558108e-01  1.2562760711e-01
  2.5340288877e-01  7.5809769332e-02  6.0637596995e-02  2.0156015456e-01  1.4398270845e-01
  2.2335460782e-01  2.8083199263e-01  1.9558987021e-01  1.7946152389e-01  2.1599847078e-01
  3.5879573226e-01  6.1785221100e-01  1.7629802227e-01  2.9363763332e-01  1.0207860470e+00
 -2.8689271212e-01 -3.7983864546e-01 -2.2600486875e-01 -2.2347435355e-01 -1.1397389323e-01
 -1.0256523639e-01 -1.0061635822e-01  4.8632360995e-02 -1.7127953470e-02  3.7320617586e-02
  2.2608458996e-02  4.8948261887e-02  6.4193949103e-02  9.4228629023e-03 -5.2101304755e-03
 -1.6917246394e-03 -2.3059404921e-03  4.1485667229e-02 -3.7139479071e-02 -7.7502027154e-02
 -7.6048418880e-02 -9.4323068857e-02 -3.9142793417e-01 -2.6567995548e-01 -2.9768711329e-01
 -2.4520859122e-01 -3.4757369757e-01 -9.1992758214e-02 -3.6766844988e-01 -5.0196665525e-01
 -9.9951869249e-01 -3.3684042096e-01 -2.0535552502e-01 -3.9205405712e+00 -3.5390052795e+00
  1.4672717452e-01 -7.6443471014e-02  4.2817509174e-01  1.2464748323e-01 -8.1329125166e-01
 -7.5675576227e-04  8.8567531202e-04  1.8980704248e-02  4.4280719012e-03  1.8396516098e-03
  9.0990383178e-03 -8.5863387212e-03  1.9291105855e-04  1.2440871797e-04 -2.2715146770e-04
  1.5544809867e-04  1.4984598965e-04 -2.4411943741e-04 -2.7982346364e-04 -2.6955059730e-04
  4.1413976578e-04  1.1242832261e-04  3.0974062975e-04 -2.8617406497e-04 -5.0773838302e-04
 -7.5465318514e-04 -1.6997993225e-04  3.6189213279e-04 -2.2483062930e-03 -2.9030258302e-03
  3.8622815628e-03  1.0681488551e-02  1.0835208930e-02 -5.1883157343e-02  7.1935319901e+00
 -4.1073339526e-04  8.4460683865e-04 -6.6211598460e-04 -5.5972253904e-04 -5.0403946079e-04
 -9.7937067039e-04  4.7613353672e-05 -3.2413385343e-03  6.4775289502e-04  1.3987552375e-03
 -1.4774607262e-03 -8.7422109209e-04 -1.0873718420e-03  2.0168446936e-03  7.9662667122e-04
  3.0571897514e-03  9.1205658391e-03 -1.1051218025e-03  4.0102889761e-03  4.3408729834e-04
 -6.6555402009e-04  3.0936131952e-04 -3.0351246824e-04 -4.3572354480e-04 -6.8328855559e-04
  1.1070406763e-03  4.7895213356e-04  3.0525526381e-04  7.3181011248e-04 -5.6929636048e-04
 -5.1197916036e-05 -1.7997005489e-04  9.5056486316e-04 -1.8772477051e-03  4.9349316396e-04
 -2.9431749135e-03  1.6932438612e+00 -4.4033474922e+00  1.7315430641e+00 -3.7919099331e+00
  3.7413530350e+00 -7.5084819794e+00  1.7564638853e+00  3.0227491856e+00 -1.0001155138e+00
  5.6506676674e+00 -4.2248010635e+00 -3.4040379524e-01  6.0899276733e+00  8.7721413374e-01
 -1.0635376722e-01  3.5123005509e-01 -3.6294312477e+00 -7.1359434128e+00  1.0728616714e+01
 -2.8925888538e+00  7.6798596382e+00  5.0496988297e+00 -5.1187648773e+00  1.4262016296e+01
  8.4540508687e-02  1.0933910370e+01 -1.1881490707e+01 -4.8798923492e+00  8.3454696655e+01
 -5.1004953384e+00 -3.1870040894e+01 -6.6623272705e+02  1.5326054688e+03 -8.4386425781e+02
 -1.3104925537e+03 -4.2482913208e+02 -1.8732855225e+03 -7.9510534668e+02 -2.4068654785e+03
  3.8267390137e+03  5.3546489258e+03  3.9816593750e+04 -2.3365259766e+04  6.6521226562e+04
  7.0252343750e+03 -1.0266516406e+05  9.7236787109e+03 -2.0003616943e+03  1.6813304688e+04
 -4.1742583008e+03 -1.5177532227e+04 -1.0613099609e+04 -1.3343147461e+04 -1.5345699463e+03
 -4.9045424805e+03 -7.4063471680e+03  1.0886387695e+04 -1.1560403442e+02  1.6681755066e+02
  7.7621728516e+03  3.8458342285e+03  1.6154956055e+03 -1.0387138672e+03 -2.1623925781e+03
 -3.6075043945e+03  2.1955056152e+03 -1.7617247314e+03 -3.0582207031e+03 -3.1297187500e+03
  1.8986764526e+02  1.7200673828e+04 -1.8516802734e+04  1.9324636719e+04  4.2799785156e+04
 -5.4862294346e-03  8.5863366723e-02 -7.9887071624e-03 -1.1272991076e-02 -3.7507391535e-03
 -7.6938860118e-02  4.7903180122e-02  4.7066113912e-03 -9.3835890293e-03 -1.0221902281e-02
 -4.7545293346e-03 -4.2078964412e-02  6.5098647028e-03  2.2053539753e-02  1.0590703459e-03
 -1.1691643158e-03 -8.0670025200e-03  2.6959158480e-02  2.6461444795e-02  2.9723495245e-02
 -4.3371565640e-02  2.4276690558e-02 -4.2304280214e-03  1.1921783444e-03  8.1543466076e-03
  1.4148044400e-02  3.3705085516e-02  2.9343541712e-02  7.7683098614e-02  3.1114686280e-02
  4.9237623811e-02  2.1950831637e-02  1.4803626537e+00 -6.5258249640e-02 -4.2762860656e-01
  2.0318740606e-01  7.1006633341e-02 -7.4939258397e-02 -1.9359996542e-02  1.5655724332e-02
  4.8512991518e-02  2.4927059188e-02  2.2434419394e-01  2.4854320288e-01  1.3969534636e-01
  1.4672994614e-01  2.3480248451e-01  1.5495759249e-01  2.0341312885e-01  1.2780009210e-01
  1.5620048344e-01  2.9414136410e+00  2.4881392717e-01  2.5376471877e-01  2.4059429169e+00
  5.0534725189e+00 -4.0646371245e-01  3.1266519427e-01 -3.0585283041e-01  3.6387869716e-01
  3.6905524135e-01  1.2639345368e-04  1.4015141460e-05  1.2280281633e-02  2.5649687741e-03
  2.6301515754e-04 -1.9386060303e-03 -1.4526169980e-03  2.3837045592e-04 -6.0634571128e-05
 -6.7411318014e-05  4.1242568841e-05 -1.1772890866e-04 -6.8817200372e-05 -2.2496948077e-04
 -3.4496391891e-04 -1.6927263641e-04  1.7874635523e-04  2.8870095775e-05  3.3115487895e-04
 -9.5539231552e-05  5.7576480322e-04 -8.6866755737e-04 -2.0232835959e-04 -1.4165689936e-03
  4.4195759110e-03 -5.7860910892e-03 -9.3266069889e-03  2.7981209569e-03  3.3576968312e-01
 -4.0101671219e+00  4.0490165702e-04  4.8956404498e-05  1.0747784108e-04  2.1309408476e-04
 -1.1218123836e-03  1.3060366036e-03 -2.6385125238e-03 -4.8527852050e-04 -7.0206803503e-04
  3.1067747623e-03 -1.9589792937e-03 -1.2572910637e-03  6.8784161704e-04  7.4479536852e-04
 -8.1457837950e-04  1.6678572865e-03  1.6830072855e-04 -1.1481177062e-03  1.9249127945e-04
  1.1238181469e-04 -4.9530976685e-04  5.7656383433e-05 -2.4628645042e-04 -1.1358637130e-04
  3.0589981179e-05  5.0060142530e-04  2.0331029373e-04  9.1652298579e-05  3.9070402272e-04
 -3.4385637264e-04 -1.6206863802e-04 -1.1618845165e-03 -1.1305696535e-04  1.1509362375e-03
 -7.2960893158e-04  3.0532199889e-04 -1.5685820580e+00  4.5397739410e+00  5.6688051224e+00
 -1.8840467930e+00 -1.1340211630e+00  4.1403684020e-01 -7.7098146081e-02 -8.3949117661e+00
 -1.0992885828e+00  2.5453562737e+00 -6.7382712364e+00  5.1672439575e+00 -2.7301165462e-01
  3.8796288967e+00 -3.9888076484e-02 -3.5610280037e+00  6.7210798264e+00 -3.7978405952e+00
  5.4580159187e+00 -1.3850544691e+00 -1.2237502098e+01  6.9361066818e+00 -8.9753961563e+00
 -9.6210318804e-01  8.2008266449e-01 -8.9829130173e+00  3.1356761932e+01 -5.9722656250e+01
  2.0459951401e+01  1.1416042328e+01 -5.4034103394e+01  8.6085433960e+01 -1.2062610626e+02
  2.3228229523e+01  6.8884974718e-01 -3.2508609009e+02  6.3078544617e+01 -1.1620599365e+02
 -6.2866455078e+02  9.5667016602e+02  1.9782175781e+04 -1.0346578125e+05  4.2885441406e+04
  1.8363583984e+04 -6.7555776367e+03 -1.2454652344e+04  5.6990527344e+03 -3.2966918945e+03
  5.0824277344e+03 -3.8438681641e+03 -3.9099926758e+03 -3.2843154907e+02  1.2763640137e+03
  4.8333232422e+03  6.7255810547e+02  3.6863891602e+03  7.3546429443e+02  4.1648798828e+03
 -1.6903414307e+03 -4.0611788940e+02 -1.1651776123e+03 -5.4345839844e+03 -1.9501490479e+03
 -4.3036684570e+03  9.3902011719e+03 -5.0824916992e+03  8.8194658203e+03 -5.3042192383e+03
 -8.7948857422e+03  4.0205407715e+03 -2.8063398438e+04 -4.3246601562e+04  1.3619342773e+04
  5.8880058594e+04 -3.5256925970e-02 -9.9581375718e-02  3.5828962922e-02  5.4838739336e-02
  4.3394427747e-02  5.1482431591e-03 -2.3365398869e-02 -3.8665145636e-02 -4.6622760594e-02
  1.1605440080e-01  8.6612008512e-02 -1.0074006766e-01  1.2410883792e-02  2.4997005239e-02
  7.7804445755e-04  8.2201656187e-04  1.9581578672e-02  6.3978363760e-03  6.5867952071e-04
 -3.2536197454e-02 -2.9734961689e-02  1.8935242668e-02 -7.7818706632e-02  1.9590839744e-02
  5.3129293956e-03 -5.7753555477e-02  8.7716333568e-02 -1.0804203898e-01  4.4108689763e-03
  4.6296674758e-02 -6.5058439970e-02  1.1833178811e-02  1.0178308934e-02  4.3682457181e-04
  9.4371261075e-03 -2.6576621458e-02  1.1012462899e-02 -7.1695738006e-04 -1.5392730944e-02
 -3.2841544598e-02  3.6575396080e-03  2.6476548985e-02  1.8453955650e-01  2.0383012295e-01
  1.5054811537e-01  1.0980324447e-01  2.6934155822e-01 -9.9462512881e-03  1.0430177301e-01
  1.3068167865e-01  8.0560214818e-02  1.1860290766e+00  2.1096743643e-02  8.7852656841e-02
  1.7550789118e+00  4.0012118220e-01 -5.3837078810e-01  6.3918784261e-02 -3.4741890430e-01
  5.1216632128e-01  1.7780654430e+00  7.3997839354e-04 -4.5352336019e-04 -1.5564680099e-02
 -1.8337592483e-02 -8.4241041914e-03  1.3195767067e-02  1.8986638170e-03  7.0935566328e-05
 -8.3633545728e-05  3.0966781196e-04  1.8883825396e-04  1.4829212159e-04  1.1898631783e-05
  1.7132506764e-04  2.0283169579e-04 -2.1713244496e-04  4.9060035963e-04 -1.5344156418e-04
 -1.7746697995e-04 -2.8960636701e-04  4.3691720930e-04 -7.1837211726e-04  3.9068472688e-04
 -7.9297658522e-04 -1.6563917743e-03 -4.8511717469e-03 -4.4249296188e-03  4.4245537370e-02
  6.0598284006e-01 -8.5692340136e-01 -2.6648435742e-03 -7.1969541023e-04 -1.8984322669e-03
 -6.2174099730e-04 -2.0564494189e-03 -6.4985384233e-04  1.2328091543e-03 -5.8731302852e-04
  1.8117004947e-04 -5.6300200522e-03 -2.2840625606e-03 -1.3691965723e-03 -3.8287058123e-04
 -3.1188761350e-03  1.7327325186e-03 -2.7788251173e-03 -1.9750035426e-04  2.4465804454e-03
  2.9739823658e-03 -9.3181739794e-04 -1.8042295706e-03 -2.4071801454e-03 -1.6217977973e-03
  2.2282886785e-03 -1.0302814189e-05  6.5344694303e-04 -8.1344414502e-04  1.8439488485e-03
  1.3453080319e-03  2.4675251916e-03  1.4812177687e-04  5.6080968352e-04  4.4742028695e-04
  1.4176093973e-03  4.3606059626e-04  2.5723821018e-03 -5.3973841667e+00  1.6833243370e+00
 -2.5625672936e-01  4.6339586377e-02  4.4569382668e+00  5.8100014925e-01 -1.2803500891e+00
 -1.5561203957e+00  1.0397373438e+00 -4.9204621315e+00 -8.6272573471e+00  7.1115031242e+00
  7.3224725723e+00  1.6066566467e+01  2.2153402328e+01 -1.3843776703e+01 -2.9680738449e+01
  3.3574741364e+01  1.9809511185e+01 -2.1502544403e+01  9.9499130249e+00  1.2793831825e+01
  8.7721395493e-01 -6.5346117020e+00  2.3721153259e+01  6.3331866264e+00 -2.0307607651e+01
  6.9457130432e+01 -2.5860485077e+01  8.0321550369e+00 -4.8370185852e+01 -2.0287555695e+01
 -2.4817721558e+02 -1.5272512817e+02  1.1939044189e+03 -2.3318658447e+02 -2.8346145020e+03
  6.1553750000e+03 -3.5370969238e+03  1.5753165283e+03 -2.7865453125e+05 -8.5505476562e+04
 -1.4392829590e+03  3.6553671875e+04  9.6833867188e+03  4.5052675781e+03 -2.5171488281e+04
 -3.5200029297e+03  2.1181927734e+04  1.9946363281e+04  6.9098295898e+03  2.8433032227e+03
  2.4840535156e+04 -2.1230136719e+04  1.6854482422e+04 -3.1956154297e+04 -1.5212418945e+04
  1.2783166992e+04  9.2712861328e+03  7.3598500977e+03  3.5903159180e+03 -2.8321049805e+03
  3.6637509766e+03  1.0403041016e+04 -7.8893217773e+03 -1.0897723633e+04  4.3933862305e+03
 -1.9090302734e+03 -3.5306437988e+03 -2.5720983887e+03  1.2586531250e+04  2.2992714844e+03
 -1.8758205078e+04 -7.2761460938e+04 -4.9498587847e-02  6.1998207122e-02  4.1731595993e-02
 -1.7617926002e-01 -1.6110371798e-02  2.3910284042e-02 -5.3693007678e-02  4.1008137167e-02
  9.4988280907e-03  1.1139919981e-02 -4.6160258353e-04 -4.1151318699e-02  1.2085252255e-01
 -2.0880440250e-02 -1.0689973086e-01  1.3745549321e-01 -2.0337588787e+00  6.2010306120e-01
  3.5180330276e-01  3.2024219632e-01  4.0437152982e-01  1.7754310369e-01 -6.2260169536e-02
  8.6094319820e-02  2.4180087447e-01  2.2002875805e-02  2.8223851696e-02  1.1699549854e-01
 -3.5481758416e-02  7.6195538044e-02 -5.1426354796e-02  1.3765893877e-01 -4.1662774980e-02
  4.1245408356e-02  2.5708362460e-01 -1.2936408818e-01 -8.8408023119e-02 -5.1386553794e-02
 -4.3063178658e-02  8.1479243934e-02 -1.2557129562e-01 -2.3052975535e-01 -4.7032487392e-01
 -2.7615371346e-01 -3.8377356529e-01 -4.9707588553e-01 -3.3683958650e-01 -4.1094827652e-01
 -4.5671239495e-01 -4.5795255899e-01 -6.2260437012e-01 -4.2674813271e+00 -5.2045083046e-01
 -4.7385188937e-01 -5.1846714020e+00 -7.4513144493e+00  9.0975129604e-01 -8.7795335054e-01
  1.2067958117e+00 -2.9227820039e-01 -1.3499315977e+00 -2.9955871287e-04 -2.0274007693e-04
 -4.9271597527e-04 -1.6429144889e-03 -6.4093968831e-03  9.1613765107e-04 -3.4661022946e-03
 -2.0615816175e-04  1.8616071611e-04 -8.2532984379e-05 -2.2365733457e-04  2.3582839640e-04
 -2.4787438451e-04 -7.3140239692e-05 -2.6502786204e-04  1.4980880951e-04  4.7530423035e-04
  6.2938641349e-05  1.0483586811e-04 -1.6875159054e-04  1.4165020548e-04 -2.1838472458e-04
 -6.3674169360e-04  2.6562376879e-03  1.1211569654e-03 -3.7902395707e-03 -8.2208234817e-03
 -1.6765458509e-02 -1.4059287310e-01 -5.3463821411e+00  9.6280040452e-04  1.1581321451e-04
 -1.6182668332e-04 -1.0027785320e-03 -7.4879720341e-04  1.3402827317e-03 -1.6005729558e-03
  6.4637593459e-04  1.6734015662e-04 -8.6746143643e-04  7.1856094291e-04  1.0593629122e-04
 -1.2718084035e-03  2.3194234818e-03  2.6148948818e-03  1.4919342939e-03  1.8470111536e-03
 -5.4650980746e-04 -2.2821620223e-04  9.2024513287e-04 -5.3423142526e-04 -1.2317234650e-03
 -5.5385642918e-04  2.5485843071e-04  3.6161072785e-05  8.7057676865e-04  9.9780423625e-05
  3.7792857620e-04 -2.2408722725e-04 -1.2527737999e-04  2.8998317430e-04  5.0156790530e-04
  2.5675276993e-04 -6.1054604885e-05  7.1444240166e-04 -1.2615317246e-03  1.4360687733e+00
  2.2687599659e+00  1.2611092627e-01 -3.2302665710e+00 -4.1606755257e+00  4.4608359337e+00
 -1.9120268822e+00 -1.7151325941e+00 -2.3868353367e+00  5.4434790611e+00  3.1035869122e+00
 -2.7654380798e+00 -7.0892276764e+00 -6.4822810888e-01  9.7878713608e+00 -4.5367100835e-01
 -5.4446716309e+00 -6.7408423424e+00  3.4812779427e+00 -6.3745818138e+00  2.0111398697e+01
 -1.1414664268e+01 -8.0767309666e-01 -9.3626953125e+01 -8.0927467346e+01 -7.3329376221e+01
 -7.3008697510e+01 -5.1549419403e+01 -3.8115550995e+01 -3.8008472443e+01 -3.4499839783e+01
  1.0580585480e+01 -3.1309532166e+01 -5.7280017853e+01  9.1268606186e+00  2.0173991394e+02
 -3.8977279663e+01 -4.9073880005e+02 -9.5046295166e+02 -1.8596677780e+01  3.0435400391e+04
  7.1449656250e+04 -5.8024359375e+04 -8.6684853516e+03  2.7778076172e+04  2.6775761719e+04
  2.5667607422e+03  9.4571552734e+03  2.5893403320e+03 -6.6690483398e+03  2.2232111816e+03
 -1.9424753418e+03  4.9433691406e+03 -8.1543071289e+03  5.4765717773e+03 -1.4401165771e+03
  2.5588552246e+03 -1.7478532715e+03 -6.0055242920e+02 -2.9959291992e+03 -2.8479958496e+03
 -5.6382597656e+03 -5.6216809082e+02  1.3548975830e+03  9.8472192383e+02  8.8179571533e+02
  7.3596423340e+02 -7.8158279419e+01  6.1163149414e+03  8.6133144531e+03  3.0411337891e+03
  1.7313918457e+03 -1.4274559326e+03  5.2432136719e+04  1.6696305573e-01  3.5433381796e-02
 -8.7060220540e-02 -5.0235047936e-02 -6.1699546874e-02  1.0869289748e-02 -3.6210387945e-02
  2.4785690010e-02 -2.7266928926e-02  9.1359518468e-02  1.0302487761e-01 -1.8261541426e-01
  1.9971793517e-02  4.0504527278e-03 -3.8336156867e-03  1.8262384459e-02 -2.6520120446e-04
  3.7545014173e-02  3.9534691721e-02  1.7989961430e-02  1.4272843488e-02  7.4440129101e-02
  4.3161604553e-02 -1.0418970883e-01  2.7833828703e-02 -4.0652924217e-03 -1.7434371635e-02
 -5.7420380414e-02 -4.9090534449e-02  5.7285660878e-03 -8.1406876445e-02 -1.8944861367e-02
 -2.4298664182e-02 -9.3123083934e-03 -2.5799492374e-02 -1.4651451260e-02  1.6533289105e-02
